73.69367183	73.55523855	74.15091393	74.14619411	73.47256192	73.06143674	72.33791629	71.98878514	71.76906204	71.40029179	72.14668586	72.30203698	72.1899369	72.85079436	73.27348778	74.25997231	75.45962941	75.98424877	78.05724196	78.44549352	77.87811279	78.11315987	77.62083921	77.38712658	76.97442627	75.89699416	75.93993447	75.4770057	74.41816365	74.28824199	73.7552837	73.93293346	73.80727386	73.23786094	73.65034693	73.60649872	72.9002148	73.15132661	73.05111798	73.80242192	74.13907172	74.03749743	74.7642153	75.04582873	74.39624336	75.02346628	75.25687096	76.32274489	76.85837277	76.92404175	77.78081374	78.24244759	78.00014981	78.76127971	79.17394534	80.48400463	80.96506847	80.92793968	81.6359565	81.67414301	80.94417225	80.96130163	80.4135437	80.73935422	80.25462272	79.15661136	79.02206005	78.21939156	76.61416695	76.12800043	75.23858088	75.20297657	74.66020203	73.59469951	73.42334192	72.81038458	71.6550827	71.39622844	70.75283744	71.00288183	70.62190039	69.76828905	69.86839641	69.46370766	68.54351737	68.39324466	67.91347226	68.17170681	67.92979951	67.26825021	67.60193218	67.39047519	66.34753245	66.25035407	65.80627823	66.37976248	66.40918142	65.90919529	66.16562861	65.98852192	65.08071345	65.20305425	64.90470401	65.78194566	65.82368885	65.45279104	65.57288048	65.30277842	64.36084366	64.68128655	64.63668095	65.16967773	65.08892267	64.65058552	65.04959904	65.15332205	64.63081221	65.10517745	65.21214641	66.14162514	66.36956648	66.11958729	66.95960028	67.14605713	66.39237352	66.41204765	65.91034768	66.10800552	65.3706665	64.02381828	63.47666966	62.55966707	61.49511199	61.38718588	61.04575105	62.06324317	62.48995105	62.58639769	63.52369413	64.42643356	64.78441342	66.22965067	67.13008707	68.19435709	68.80065953	68.77059486	69.41971484	69.69174715	69.5739805	70.26593746	70.6297708	71.88041618	72.49008734	72.60901295	73.81398218	74.25702875	74.48390128	75.20296756	75.2203494	76.0788491	76.3785664	75.9734719	76.36924674	76.21511702	74.94237934	74.80642423	74.38384594	74.36128998	74.0336276	73.31446492	73.21358074	72.73597717	71.53229627	71.42774721	70.95163484	71.67891242	71.48495657	70.76738635	71.1069381	70.95084901	70.2155675	70.40914466	70.21825652	71.15863939	71.32196739	71.00729648	71.68570987	71.87801708	71.33560458	71.83605472	72.0232322	73.15694427	73.74843597	73.93814087	74.96048667	75.58452329	75.69394545	76.61148418	77.09665333	78.52028725	78.90232017	78.60028423	79.06731207	78.72795729	77.76413241	77.30436013	76.16144354	75.78171886	74.66500092	72.95137648	72.12774936	70.80487061	69.11017643	68.01683218	66.52435545	66.22638737	65.13162266	63.65241762	63.30601293	62.53648099	60.84308867	60.78638701	60.12526044	60.83347286	61.24142907	61.32750182	61.99889686	62.76499835	61.58885956	62.61927553	63.32165839	65.4005987	66.42083324	67.37864893	68.67391031	69.78863421	70.41531407	71.75261099	72.96534556	75.95942202	77.03349512	77.7452996	78.91107386	79.23929319	79.10187461	79.39427671	78.94382824	79.43317621	79.38583513	78.55805414	79.10633642
76.17446726	75.60127154	76.08233192	75.83029695	74.46820589	73.60012089	72.41218948	73.32418615	73.15998494	72.6104445	73.35519617	73.64237282	72.13632445	72.90721026	73.48659758	75.46115494	77.15504906	78.15802453	79.43705784	79.81536206	78.26229616	78.40128292	77.96012081	79.57714982	79.11454287	78.01575886	78.01198925	77.52065346	75.88619128	75.73855487	75.24267127	76.77848712	76.62354105	75.97300616	76.50788498	76.50095957	75.05177168	75.31344327	75.18593181	76.69944729	77.07704197	76.97967703	77.72387383	77.96933157	76.25944554	76.81214246	76.98589637	79.01050776	79.52102106	79.51716406	80.37327437	80.78437736	79.09422822	79.90919391	80.30750448	82.91946515	83.46582205	83.34944326	84.13321651	84.28308348	82.1620962	82.25656059	81.78927959	83.64029381	83.22652955	82.18881607	81.95279312	81.13306184	78.50212062	77.96574367	77.05135519	78.50958946	77.9372836	76.88675482	76.69718101	76.03279044	74.07299111	73.87153279	73.26665011	74.5736084	74.13383068	73.02370037	73.23686149	72.85815776	71.31596687	71.19391805	70.68272989	71.78308348	71.49847308	70.68216463	71.12767965	70.98649424	70.04689442	69.86816892	69.27977128	70.50592631	70.48995798	70.06385144	70.27789272	70.08690609	69.04430632	69.09350343	68.6486702	69.5531533	69.64407973	69.308016	69.25958599	68.95101235	67.54268681	67.89150273	67.7689698	68.52353564	68.52473068	67.96740619	68.51996578	68.56080315	67.57980589	68.13203812	68.22664261	69.56993797	69.74100633	69.34224632	70.25217576	70.45588199	69.72772876	69.74211086	69.16857945	69.96181107	69.43763421	68.33608489	67.83163972	67.05581838	65.79990456	65.55000305	65.10801558	66.26465919	66.66427716	66.84500642	67.6362433	68.27952194	67.72280606	69.11162082	69.86893116	71.34157389	72.05936813	72.13180993	72.85817684	73.12718652	71.78983203	72.64865771	73.15847466	75.11930847	75.89358659	76.09166648	77.39755596	78.08339969	76.35620429	77.05418569	77.19100016	79.11547678	79.25225865	78.75529931	79.02848781	78.6429315	76.35639468	76.07722473	75.34417655	77.12546366	76.73476167	75.80759534	75.81639966	75.34190057	73.60124068	73.62576571	73.22563865	74.83889875	74.65351417	73.8771019	74.32973099	74.26420697	72.98438922	73.21661065	73.05084957	74.52351102	74.68760542	74.3162065	75.11057351	75.35409685	72.0312982	72.54165268	72.65456633	74.4724839	75.10093238	75.25998861	76.32704197	76.95598776	75.32558198	76.30323896	76.801213	81.09517808	81.55898701	81.26593989	81.71375344	81.46811537	79.53018813	79.08545269	78.01530318	79.44683907	78.37967959	76.77543709	76.02171534	74.74221663	72.61751799	71.57878425	69.97666134	70.62216013	69.69357126	68.49313146	67.82496955	66.85981855	65.27590942	64.80335652	64.02360327	64.84629094	65.01679819	65.06198432	65.55158615	65.92891728	64.54465103	65.76067907	66.52067358	68.26509268	69.50364997	70.27923341	71.77662763	72.77802727	72.13777438	73.72665058	74.92118558	78.05677137	79.42569282	80.14141603	81.71740896	82.56569221	81.36686082	81.93762901	81.83830885	83.49623489	83.3436907	82.55779787	82.71207532
74.95397082	74.12959116	74.21166056	73.57789646	71.15487012	70.7014337	70.05009426	72.18465562	72.27517561	71.97190371	72.86325559	73.37534194	72.43226138	73.68526806	74.76782365	77.97016283	79.49921695	80.24794214	81.54867762	82.0446812	80.626821	80.92700369	80.6409	82.10347228	81.75193821	80.70866151	80.56965117	79.90529043	77.2829413	77.02606652	76.39095688	77.81485402	77.57180301	76.86732344	77.23768408	77.07837954	74.98285952	75.25349288	75.11736575	77.26730069	77.51110008	77.23618594	77.96352595	78.1608852	76.55948257	77.06705371	77.2033577	79.66829924	80.09345349	80.01270884	80.95000284	81.34344864	79.77104638	80.53748079	80.89846282	83.357657	83.97586823	83.97141474	84.8545345	85.10831451	83.19404186	83.42487335	83.10144251	84.93994349	84.62535928	83.66332592	83.52049047	82.77734722	79.96212942	79.41967115	78.46462007	79.82036417	79.19255309	78.09040104	77.97048291	77.30519832	74.47513095	74.17181396	73.44206377	74.96645182	74.57262733	73.65484099	73.73386834	73.30644885	71.04480327	70.83442272	70.27534207	72.22761432	71.98420195	71.2313222	71.54557558	71.27095344	69.43347827	69.41209585	68.98967292	70.78096494	70.70888381	70.06251873	70.34180381	70.17865337	68.38869338	68.46759172	68.13066032	69.60610338	69.60142309	69.0540716	69.2872578	69.14552723	67.20092253	67.40973559	67.16775478	68.71094131	68.8141476	68.23441974	68.79770556	68.77437834	66.34736876	66.71179303	66.6694492	68.7134878	68.94028473	68.48965801	69.25570956	69.25759055	67.88398639	67.9912633	67.50708805	69.5835436	68.94738527	67.40388142	66.70834455	65.69972888	62.49953495	62.35882048	62.07356019	63.74722221	64.10687811	64.11174427	65.18217815	65.99375777	65.99912123	67.61855143	68.57421494	72.11382814	72.80447492	72.87813672	73.7598603	74.10735494	72.05914168	72.85604165	73.33373538	75.28023286	76.10034492	76.41092023	77.72857701	78.46089762	77.38934673	78.17472909	78.43314223	81.30978983	81.54770834	81.08403466	81.39219492	80.99216565	78.65109565	78.26037424	77.38589582	78.37671384	77.76992937	76.70573841	76.62650299	76.03647059	73.38718484	73.22175806	72.68928112	74.27716273	74.16518749	73.58505526	74.09196819	74.03969921	71.75331983	71.99132364	71.8660587	74.14755422	74.38784894	74.12317762	74.90456217	75.14227191	73.35152643	73.90442449	74.07045815	76.823495	77.43209735	77.54526277	78.69338885	79.32928016	78.37169439	79.36801286	79.8874054	82.61550383	83.12591726	82.95246783	83.47977343	83.27173372	80.92132464	80.55737617	79.57641081	80.3138511	79.27867612	77.64295751	76.86614713	75.56473888	73.19996366	72.2252114	70.81100533	71.69773969	70.6929838	69.21893935	68.67190482	67.6118171	65.35795489	64.92292196	64.26402595	65.20311841	65.03806686	64.60660934	65.06424297	65.07743766	63.99899119	64.83235272	65.38729824	67.63500422	68.5875362	69.01195249	70.36588842	71.41987263	70.02885714	71.60780889	72.88788466	75.71918418	77.20417578	78.11668882	79.98598758	81.27264682	80.70714222	81.94593187	82.55242573	85.56748685	85.86236225	85.4117827	85.67565849
76.3527995	75.92458864	76.46731879	76.25562182	74.68011024	73.93820364	72.03150871	73.06144194	72.58278691	71.84156279	72.29514972	72.3435069	71.4087625	72.07433631	72.50989359	74.76398087	76.17881602	77.71182945	79.26222437	79.87483701	78.35597472	78.57818083	78.1839832	79.18138019	78.81837359	77.85687984	77.76504274	77.2856206	74.55214414	74.40543227	73.91789246	75.43657025	75.33453543	74.74537208	75.11611349	75.0238429	73.41892173	73.72059146	73.64633734	76.2484599	76.56607506	76.37799523	77.21375725	77.5177914	76.42302981	77.03150316	77.24600358	79.42478492	79.94997233	79.93174848	80.92543827	81.39186824	80.48397376	81.25836147	81.57447087	83.59426811	84.10158261	83.90799228	84.62169855	84.651517	82.22510078	82.24927555	81.72134503	82.65572461	82.12779062	80.98416172	80.70316488	79.88960301	77.36096504	76.8430859	75.95869203	77.62647663	77.04240487	75.9700144	75.88959156	75.28769753	73.45695808	73.19599811	72.52696609	74.05657578	73.67928696	72.82396871	72.95245812	72.53423621	70.91535846	70.81619228	70.22957507	71.34454554	71.14092185	70.39232289	70.56324213	70.29572019	68.58006633	68.56186607	68.1519921	69.2083546	69.11051386	68.4474841	68.73565882	68.52948761	65.44128626	65.49337422	65.20865284	66.48337	66.5074456	66.02180342	66.46236975	66.32078691	65.07761279	65.30163054	65.11055305	68.11531726	68.27207704	67.91086821	68.52735381	68.54237678	67.47656597	67.86457131	67.87031347	69.53257717	69.76304592	69.42386384	70.1307106	70.17257725	68.16136031	68.31556147	67.90787437	68.41676261	67.75186573	66.36514837	65.3303403	64.30375255	63.39533372	63.13056114	62.77565765	64.83977058	65.12078268	64.94315928	66.2214626	67.0265933	65.70332614	67.43371998	68.33442827	69.35967047	70.03694361	69.84973491	70.61264732	70.92510362	68.27001086	68.95389869	69.31352477	72.2592118	72.96440506	73.10119664	74.27073427	74.77398924	72.63870863	73.25547513	73.41389604	76.74865411	77.00212617	76.58146841	77.10671199	76.95140318	75.17471313	75.1720366	74.73040841	77.17882781	76.970614	76.20679509	76.44173258	75.9926685	74.06173879	73.92358156	73.38300219	74.73503737	74.56776498	73.98137318	74.30848971	74.15925598	72.6262377	72.8564949	72.70402839	74.37698746	74.56746431	74.30181503	74.98152542	75.16162144	74.13254929	74.74575563	74.92568935	76.89526991	77.50115897	77.6589515	78.77101482	79.41807279	78.96937214	79.89770785	80.28125	82.13513114	82.53432811	82.17498779	82.53036707	82.18214486	80.58310769	79.99004919	78.7890625	78.88773138	77.71143688	75.7465425	74.92665655	73.67356734	71.50058885	70.35238578	68.92584853	68.9257979	67.80404941	66.00639551	65.68726557	64.99359686	64.44760375	63.90211799	63.26637233	64.38161364	64.6635274	64.37258079	65.42658719	66.37490221	66.42249992	67.40087544	68.12851368	69.39934574	70.75437199	71.31565059	72.8459705	74.11078401	73.02300817	74.44351266	75.51112574	77.99220623	79.37238728	79.94007249	81.46006012	82.19361461	81.21401423	81.60138564	81.40858806	83.54648729	83.24779372	82.35077598	82.44437825
74.01329145	73.12458142	72.95093432	72.40440334	70.45872428	70.44778928	70.17784119	72.53326381	72.92071152	72.94444518	74.1638083	74.90672198	73.76096899	75.23333602	76.29764765	79.00266994	80.23378164	80.77807583	82.0561735	82.54180943	80.78354229	81.11920513	80.86149597	82.59633324	82.28377845	81.23069937	81.17326043	80.47441066	77.63497439	77.31813674	76.60024678	78.22119938	77.94221254	77.13021816	77.41534667	77.21641853	75.10067472	75.31888095	75.17673978	77.47434269	77.68686641	77.3868911	78.10015488	78.27876039	76.83343645	77.34197304	77.45470359	79.84827319	80.26590139	80.16396783	81.03340253	81.42343244	80.34621325	81.07107162	81.44675619	83.74031344	84.37110277	84.45835946	85.40669459	85.72258481	84.05370123	84.39722443	84.18682098	85.5800268	85.36293169	84.43102681	84.4023923	83.70003232	81.13424752	80.63090168	79.64905617	80.833571	80.1760788	79.01515614	78.85665963	78.17133123	75.67325037	75.34159504	74.61351707	75.97545901	75.54983521	74.68470903	74.74007277	74.29532554	72.01953125	71.87500763	71.34032787	72.93035889	72.64718836	71.85288724	71.99628657	71.70186199	69.44792591	69.41910067	69.01546686	70.62278331	70.52244707	69.68985193	70.01533924	69.8402377	67.64249594	67.7630369	67.36778086	69.11487822	69.05980093	68.39356474	68.81776394	68.64900242	66.85681152	67.00760443	66.72847748	68.76691263	68.7913045	68.40395182	69.05365718	69.05436672	68.27528832	68.59152187	68.49043933	70.44594088	70.66080614	70.3841414	71.01609664	71.08523421	68.80375706	68.93718962	68.49100529	68.93693334	68.28019714	67.03324959	66.34972243	65.04184237	63.12454189	63.04312723	62.74622865	65.15952024	65.45649927	65.4357279	66.57804073	67.47857007	66.85410413	68.54429731	69.82418026	71.98974887	72.67298473	72.68040813	73.5718467	73.96359184	72.69528164	73.48430113	73.92046183	76.27014819	77.10011257	77.44308368	78.75501841	79.51516134	78.28097569	79.12762486	79.42321951	81.56721358	81.85976687	81.44980691	81.84008928	81.53942524	77.52263399	77.17354133	76.22958964	77.50102754	76.82345338	75.54583706	75.36697561	74.70321621	72.76193411	72.46754837	71.80680119	75.07039087	74.89024769	74.28100655	74.67307281	74.61841999	72.88762769	73.17846992	73.05428071	74.57414905	74.81740327	74.55860311	75.29764245	75.52423061	74.29944437	74.87886221	75.081999	77.39492382	77.9511802	78.08462455	79.20046997	79.85997425	78.84327351	79.84141124	80.40328979	82.64977542	83.22175459	83.04523052	83.66002516	83.50990573	81.52938704	81.23433616	80.31313671	81.19116558	80.16662182	78.52081229	77.73723256	76.40634086	73.24433968	72.28421298	70.88882724	71.51914493	70.51137543	69.06240879	68.49520076	67.52238152	65.84414777	65.37885666	64.59416233	66.21814693	65.96786672	65.20521233	65.50116348	65.47786955	64.61824591	65.33151453	65.75063463	67.39243802	68.31135074	68.75790336	70.13322518	71.12022192	71.03591121	72.5204062	73.66752312	76.01341213	77.41390124	78.30511232	80.04603819	81.34481638	81.27705071	82.68203978	83.5659953	85.70945532	86.35310572	86.14063332	86.71398371
71.57969804	70.90063893	70.34075304	70.20860845	70.16200118	70.41075412	70.7068093	71.26270849	71.90984344	72.70425762	73.74843389	74.91368727	76.13453882	77.40671747	78.45291276	79.48873	80.31770671	81.05092621	81.59708266	81.94052401	82.10885898	82.06171695	81.91662182	81.57464738	81.13683319	80.5354642	79.90556682	79.26284096	78.58758406	78.01489605	77.50684149	77.08918138	76.71395805	76.38299699	76.17649078	75.97764865	75.93216775	75.88802893	75.93236264	76.08306122	76.21077659	76.3798301	76.58283719	76.82863201	77.13485648	77.40039548	77.73766049	78.06234256	78.41909235	78.78515209	79.16694017	79.62128657	80.10304676	80.61114987	81.19825814	81.76382585	82.37903595	82.93159277	83.42730227	83.83649028	84.12156816	84.29941767	84.33326028	84.23939653	83.99264873	83.61150568	83.09923831	82.47446026	81.79526173	81.02792705	80.30532976	79.54155315	78.81343633	78.13427526	77.42949468	76.80042752	76.17789598	75.62683244	75.10714999	74.57998588	74.19107749	73.70866047	73.3559383	72.94588748	72.52765933	72.17716009	71.82876309	71.50425096	71.19176414	70.84292949	70.6484701	70.30218159	70.05955089	69.76882518	69.51775707	69.35605205	69.16119246	69.00516094	68.8632757	68.69567594	68.56484222	68.38419481	68.27975325	68.14769745	68.03502932	67.99792619	67.88433491	67.82878668	67.74473225	67.67056899	67.70250078	67.67411319	67.68719552	67.68977703	67.73672624	67.82349534	67.87660772	67.97544722	68.08942483	68.24929463	68.42920546	68.49058602	68.71576413	68.82740853	68.97797255	68.92526592	68.77045718	68.35803396	67.71277688	66.69810278	64.71522002	63.55144709	62.80176752	62.42106975	62.3227872	62.33858975	62.58916127	62.92722529	63.53514758	64.39245397	65.66812203	67.84749361	69.29412426	70.39709958	71.08110324	71.54545177	71.95959265	72.44917228	72.94222398	73.55129311	74.23893322	74.92732655	75.74418918	76.52760592	77.35863426	78.15359844	78.93185564	79.59104018	80.10123721	80.51411369	80.74218889	80.82421389	80.76974418	80.5717177	80.23688438	79.74419472	79.19586459	78.46525366	77.69401134	76.86366619	76.07122595	75.38121171	74.68162398	74.08610535	73.49787695	73.00272994	72.66782934	72.36253288	72.23078225	72.250421	72.32344679	72.51114516	72.61113878	72.82235718	73.0309906	73.27583521	73.56784474	73.78868727	74.14372947	74.52535317	74.87347273	75.37470939	75.80540258	76.40991419	77.01398884	77.69092005	78.45871388	79.21470087	80.02671328	80.72406769	81.31808472	81.74463168	81.92475891	81.94529308	81.74539393	81.34745858	80.71154508	79.87778334	78.85805511	77.7351095	76.49647869	75.2230183	74.02592538	72.84878887	71.63050704	70.48200087	69.40544891	68.31409177	67.23379655	66.35307	65.60794657	64.88801263	64.40740759	64.02058411	63.59958891	63.45524771	63.26944074	63.2862261	63.55857745	64.02671779	64.66054882	65.26062497	66.06926242	66.76826373	67.49017785	68.51776192	69.46941653	70.64385015	71.8173405	73.00112499	74.2391621	75.35959764	76.56681824	77.80885246	79.10634128	80.41723147	81.50502292	82.48055475	83.16972351	83.56320329	83.76546825
73.26326058	72.05926028	72.05701516	71.79895991	69.57569573	69.93998822	70.07674235	72.18327852	72.83185404	73.14130436	74.40837062	75.3982374	73.14866257	74.40442692	75.15902051	78.36588912	79.2933419	79.57419656	80.78618899	81.2204465	79.13903184	79.5568917	79.36154522	82.61287065	82.37428908	81.45755282	81.36460876	80.67033386	77.07627002	76.65775264	75.91984662	77.81879182	77.43784991	76.63382062	76.8015702	76.53272143	74.40290902	74.53310741	74.29206016	77.25845233	77.38882204	76.97451401	77.64439565	77.77976886	75.93712547	76.41721691	76.47275335	78.77349195	79.1647377	79.02635366	79.92691838	80.31098557	77.4376401	78.1801959	78.54267883	81.16926332	81.84175353	81.95937243	82.97484693	83.37335309	81.26576649	81.69130429	81.55448081	84.8650641	84.70994949	83.85994547	83.86045248	83.19882376	80.28576209	79.74633962	78.74359512	80.49966084	79.83120589	78.58619551	78.43376576	77.7450617	74.56999657	74.22561958	73.50449267	75.29906429	74.89997344	74.04059219	74.0497544	73.62957937	70.1886458	69.99194752	69.46852528	71.67381599	71.38925067	70.633564	70.69848806	70.35467495	68.51683461	68.43560514	67.91481573	70.72052591	70.52916822	69.78786087	70.13843848	69.8707265	67.93305137	68.07337536	67.69108235	68.92473706	68.90584391	68.25412577	68.75328029	68.62790576	66.76124607	66.9485491	66.67860933	68.37577889	68.43775732	68.08471333	68.84188565	68.87150435	67.29114151	67.59789519	67.55336657	69.45960478	69.62083886	69.384028	69.98313453	69.97626322	67.40838311	67.44600712	66.98971176	68.0927294	67.39445322	65.82949413	64.86654871	63.66344833	61.76387232	61.67334539	61.48375216	64.02452504	64.36556175	64.28897927	65.57199894	66.45178396	65.81962967	67.76187307	68.95325955	71.15170115	71.92455673	71.87069251	72.92885694	73.3564304	71.39595864	72.26585388	72.75184076	75.39202846	76.26348773	76.65456078	77.95406446	78.69407827	76.95421427	77.79097505	78.1211482	80.99275138	81.28078807	80.86918432	81.32938108	81.06489563	78.82702706	78.60125247	77.82125508	79.67956959	79.0167167	77.73172968	77.49932029	76.73307662	74.22109326	73.82681656	73.0764989	74.45568327	74.11827261	73.39035971	73.68140585	73.57516445	71.49011751	71.77465161	71.74454117	73.76317042	74.0234375	73.79557454	74.54770106	74.756116	72.43695935	73.01126966	73.19018035	75.80162915	76.40306334	76.46204064	77.62864858	78.27759864	76.40108941	77.46151421	78.06393814	81.39374265	82.03606068	81.92066678	82.60003038	82.52436967	79.56201484	79.30301077	78.44970322	80.16474117	79.15353428	77.60536298	76.83828007	75.48871509	72.38415701	71.36330171	69.93100912	71.45207284	70.39529003	68.87900127	68.37570052	67.36005124	64.16078498	63.58773006	62.85068547	64.32055248	64.07671772	63.22161172	63.68409243	63.53822535	62.10042329	62.55399565	62.74547612	65.54735704	66.35274506	66.52464711	67.84658016	68.69110558	67.40286775	68.71495854	69.78933473	72.60888394	74.03401462	74.92705744	76.74915106	77.99978083	75.81545049	77.30343559	78.35672829	81.98973083	83.00164309	83.28754217	84.19764224
76.45443552	75.42623589	75.35347158	74.97459793	73.72564697	74.06062525	74.05688546	75.52639112	76.14136817	76.42190309	77.57980589	78.54792751	77.97920678	79.44417191	80.36530963	82.46023837	83.43247362	83.64064719	84.59918352	84.86300659	83.38981698	83.56714699	83.16418596	84.39127003	83.99324105	82.93221699	82.77069716	82.07666779	79.46029767	79.11437537	78.4307081	79.67267435	79.39061564	78.60571116	78.91482509	78.72739931	76.56563984	76.81755274	76.69473059	79.02869381	79.23900292	78.92970727	79.65202228	79.856085	78.28595491	78.82349985	78.94088919	81.40653367	81.81572862	81.67681122	82.53646851	82.91778564	81.30754748	82.04675605	82.39908565	84.81433071	85.44897426	85.479874	86.43931545	86.75226697	85.1318238	85.45147324	85.23123412	87.19362779	86.93593389	85.99433344	85.9219936	85.19563502	82.25566344	81.71907841	80.75609346	81.98645748	81.32703157	80.12158377	79.91107559	79.23172933	76.34343997	76.00016299	75.25471913	77.07633175	76.6762352	75.78038892	75.79439233	75.32130883	72.22844002	72.11311756	71.56057184	73.57852624	73.35476095	72.56320156	72.72873792	72.41482301	70.17878654	70.16718639	69.72591747	72.15910166	72.03611305	71.31567071	71.58275708	71.38306115	69.44798972	69.55099557	69.24905187	71.04127329	70.97980742	70.40416059	70.86555099	70.65983269	68.73990943	68.89514056	68.66700155	70.54893078	70.64502785	70.2105914	70.78405068	70.77446053	68.63213106	68.91402193	68.87412089	71.02501713	71.28498043	71.005927	71.57527265	71.5865156	69.98282415	70.16048431	69.78415541	71.36839919	70.87117421	69.73869185	68.7074578	67.64276331	66.17400776	65.95105466	65.54112382	67.24627859	67.51067734	67.26539785	68.6469574	69.47044581	68.92938891	70.83828215	71.91522043	73.51625026	74.36552811	74.44799007	75.33680552	75.75036378	74.52543605	75.31751217	75.74236748	77.89415672	78.71182251	79.05582497	80.43551497	81.16335435	79.86813875	80.72347433	81.03372435	83.34393068	83.60940448	83.20710234	83.60564041	83.2848216	80.38554868	80.04269548	79.16798678	80.42221312	79.70506183	78.459722	78.14293289	77.40425422	74.37389547	74.03446648	73.34373439	75.39296445	75.21423617	74.62733529	75.09729975	75.0182939	72.04850942	72.3827102	72.27305291	74.8505738	75.12643121	74.91657569	75.64298075	75.83243041	72.45712176	73.01901488	73.2124013	76.79243469	77.39206904	77.50671456	78.58399963	79.22746693	78.14147325	79.11197801	79.64112715	84.0370421	84.66052246	84.46723522	85.13108132	85.08392126	83.6776886	83.44454748	82.60449496	83.34736911	82.32180855	80.40668349	79.68059679	78.38203708	76.47176049	75.53963852	74.29270692	73.86004916	72.66697138	70.92823583	70.55876437	69.50787354	68.94815202	68.54867276	67.96149445	67.79178481	67.31260959	66.63971571	67.59911173	67.74824975	67.90259205	68.85752175	69.65171953	70.4816416	71.25485438	71.63569225	73.41761884	74.26646319	74.04566782	75.30364609	76.26922503	77.84679343	78.92828993	79.56068143	81.20652702	82.31044076	81.68658586	83.17224052	84.03811299	86.07084586	86.73479462	86.68526251	87.20796897
81.56010333	81.81358164	83.07761418	83.7975939	82.45908945	83.36476309	83.7517239	86.0589017	86.38412268	86.14705727	86.77041071	86.82584312	83.60358672	83.75402173	83.42040842	85.41471135	85.45147116	85.05298233	85.78815911	86.021844	82.97438916	83.3627628	83.30835897	86.7232992	87.06524034	86.93626751	87.82551436	88.14287012	85.80456959	86.23041604	86.10467529	89.32477223	89.1723293	88.32448092	88.27985798	87.51333965	84.61984634	83.97025819	82.98601289	85.01236066	84.64309519	83.86174739	84.2191554	84.12584721	80.63021885	80.95524216	80.94133516	83.26617501	83.60223042	83.33686204	83.9338046	83.85228174	80.85563452	80.9999889	80.77359148	84.36054368	84.50137884	84.11319178	84.76742554	84.91577357	81.74047817	82.26451215	82.42146752	85.77774707	86.28472866	86.28188428	87.25635702	87.73038795	85.28773672	86.02335323	86.29026968	90.07852381	90.41499121	90.07050046	90.58797385	90.39886821	87.07676627	86.89002783	86.15947585	88.54416102	87.91600383	86.69065996	86.43955855	85.65421018	81.81579208	81.33006044	80.45197053	82.86396477	82.34304706	81.27657214	81.25365136	80.68306143	78.08926669	77.86163954	77.20156305	79.94373842	79.65548533	78.81965048	78.97953692	78.60008344	76.44977708	76.41858396	75.99250169	77.86235775	77.64966549	76.93326395	77.14201667	76.84983375	73.89503722	73.93090994	73.51971748	75.18906611	75.02356789	74.43549	74.76169725	74.56400715	71.70377142	71.85677684	71.51321064	74.24416559	74.16605308	73.57611778	73.88364965	73.7195275	70.77577348	71.05940316	71.15322252	74.33761527	74.88157376	74.9713107	75.90724321	76.34299816	74.07517763	74.72856036	74.81722086	77.88740921	78.07472819	77.58696019	77.9294874	77.68634415	75.18997713	75.34010974	75.21521586	78.09542985	78.52055498	78.49154941	79.49020316	80.05641868	77.98407988	78.88486585	79.41616579	82.50250487	83.32082055	83.57712104	84.80010189	85.39532089	81.34591467	82.0707668	82.25380152	85.20204613	85.40280255	84.91571149	85.28667277	84.9888975	81.40029699	81.19171975	80.51246366	84.68664655	84.22373442	83.23325244	83.24996289	82.74979505	79.35065113	79.21325961	78.68903836	81.67663817	81.50218652	80.83875587	81.15267077	80.94954716	78.2698444	78.30265288	77.86138604	80.60539939	80.36460183	79.61555204	79.88795402	79.69908974	77.62187264	77.81635909	77.64266066	80.36258628	80.72196891	80.67491427	81.71557062	82.36806211	79.05334126	80.10350314	80.77221055	83.62623943	84.52527826	84.7607949	85.79873033	86.08766313	83.2711303	83.42867036	82.94224167	86.60145187	85.9807493	84.60656149	84.0567568	82.83746164	78.15046033	77.17296704	75.85073263	77.68951693	76.65280151	75.01329387	74.4705117	73.46771795	71.45132134	70.80517543	69.87109618	72.85579785	72.51329422	71.83014714	72.18770495	72.26890321	70.41456049	70.98947421	71.13542453	72.6228988	73.07349708	72.83814898	73.36852646	73.17112767	71.74172072	71.52286391	70.77045441	72.57940917	72.30940073	71.72210173	72.30922248	72.5212066	70.78430835	71.77587232	72.59508757	74.91184235	76.45034998	77.44960854	79.27089275
78.24878276	78.83151592	79.45907385	80.39907837	80.80811171	81.66537684	82.0352159	82.4525743	83.02045649	83.05134166	83.59660617	83.42162739	83.51017623	83.34259796	82.88231243	83.14105641	82.56454398	83.21560392	83.01919278	83.48879103	83.72737607	83.72371257	84.17363115	84.04654277	84.54180076	84.90138106	85.18114888	85.93466464	85.81863265	86.38582542	86.15320518	86.18156502	86.18530343	85.55068346	85.5583718	84.2339325	83.82786283	82.58761666	81.93016954	81.47300443	80.92874284	81.00916013	80.58312503	80.62589056	80.6017678	80.512859	81.16973045	81.0239133	81.76455272	81.62368705	81.89711761	81.78829748	81.60958585	81.76742138	81.48706263	81.73353369	81.68734464	81.84361128	82.1303378	82.20811809	82.66906877	82.79487055	83.28024015	83.69374293	84.09062264	84.79187705	85.13086423	85.8771723	86.24898668	86.79926231	87.27291939	87.49139682	87.93384066	87.84280326	87.97805647	87.68099213	87.38785622	87.05894262	86.38709398	85.9834456	85.11252525	84.53690685	83.71784696	83.03533589	82.43598661	81.63275979	81.19608029	80.46513228	79.99727076	79.36353926	78.82431516	78.43425889	77.90963745	77.60845115	77.02998699	76.70326926	76.33209853	75.92534013	75.63194622	75.28823714	75.06828239	74.75352894	74.49473572	74.20894068	73.92615648	73.76426003	73.442697	73.23237887	73.04009524	72.79371504	72.63728055	72.43285578	72.24325215	72.08184745	71.88934187	71.83991727	71.56380185	71.58597981	71.33407801	71.27432945	71.15172438	70.88121796	70.97235454	70.53482056	70.75927734	70.59014476	71.07838024	71.45632241	72.03605374	72.63625682	73.14718836	73.76175274	74.23755091	74.51154327	75.15331754	75.161404	75.57668929	75.20263533	75.24222218	74.94753473	74.86869118	74.8171352	74.71525782	75.03976926	75.19731418	75.72658816	76.20658875	76.7791214	77.57006489	78.13248998	78.93492265	79.5979538	80.35219851	81.21104292	81.80513139	82.72747595	83.14294988	83.81352789	84.15509172	84.41120286	84.72622542	84.55625222	84.67429907	84.25097587	84.03037193	83.57621973	82.97677682	82.65517287	81.92796256	81.65491763	81.04068271	80.6640084	80.33218731	79.81309856	79.7116935	79.19670174	79.14589344	78.89078591	78.67707339	78.6938858	78.26683183	78.34562544	77.76670283	77.68990048	77.47034108	77.17332042	77.27911932	76.86496318	77.07902596	76.92528257	77.05884621	77.43797926	77.52303661	78.42583535	78.60476615	79.57106781	80.22947138	81.07246052	82.25252256	82.75332988	83.92703386	84.06871865	84.70382344	84.89414909	84.84736148	85.05478876	84.18146376	84.00321891	82.52975949	81.72149034	80.6360002	79.32295296	78.73197452	77.11055617	76.44588956	74.18572825	73.38880886	72.45007706	71.5226437	71.31913098	70.20564166	69.90252027	68.72561888	68.41280816	67.28294962	67.1220228	67.93138955	67.85870361	68.3894251	68.19922707	68.67108154	68.69659424	68.82860426	69.44163097	69.05706856	70.13162578	69.192319	69.32144928	67.94224479	67.8564252	67.64431	67.60004633	68.15608909	68.47204035	69.27810461	70.06635423	71.12432376	72.6361299	73.88620619	76.08898579	77.10752938
76.54587763	77.39624162	78.12001107	79.46036252	79.85496798	80.97319169	81.10722004	81.65558694	81.91316015	82.04704285	82.50009433	82.4368085	82.60392761	82.5469936	82.22469815	82.56312006	82.12974271	82.88291515	82.77845001	83.41217943	83.67493647	83.87795258	84.3277796	84.28582209	84.7868576	85.11450958	85.42280232	86.05849179	85.97295657	86.45783442	86.17570357	86.15964439	86.04250613	85.43979229	85.34315976	84.14370519	83.70808757	82.50113123	81.94189731	81.4898099	80.9930628	81.02854434	80.64970121	80.63596067	80.57355915	80.45092843	80.93802157	80.7772626	81.39441612	81.13079002	81.32714081	81.16614116	81.03419633	81.13674094	80.96719499	81.19132649	81.21506916	81.37373907	81.64926841	81.78604958	82.27342016	82.4492569	82.97920158	83.39776473	83.85493747	84.53114735	84.91901328	85.63268488	85.99262376	86.55559054	86.91751584	87.13440288	87.44619335	87.26253856	87.31304654	86.88637057	86.56165244	86.07276639	85.42359161	84.92146579	84.05098655	83.48090848	82.61195027	81.95954132	81.32149783	80.61594252	80.17624456	79.44086942	79.03848475	78.37203008	77.9166884	77.41456257	76.94304865	76.58328455	76.0641854	75.76098563	75.33491794	75.05817067	74.72247592	74.42802499	74.18445795	73.86423978	73.73527943	73.38195731	73.25391665	72.97465238	72.82478263	72.55639995	72.286404	72.12074141	71.85781514	71.78067363	71.45939567	71.41136932	71.17875671	71.11176161	71.03889743	70.86121715	70.83037983	70.66343481	70.72715551	70.35574896	70.40564381	70.06057878	70.01087536	69.91624936	70.115448	70.31452873	70.76526572	71.26669103	71.77899933	72.17625497	72.83288019	73.08215956	73.79425881	73.88399644	74.36969896	74.273837	74.42524927	74.35298365	74.1944261	74.30769209	74.18032906	74.52434679	74.69444206	75.18224612	75.76214183	76.2805044	77.0585563	77.57864241	78.37935292	79.094669	79.79099204	80.71827836	81.29358465	82.16409579	82.60551938	83.22521695	83.62133026	83.8540587	84.1950857	84.02075265	84.11537309	83.72608393	83.45549844	83.03666548	82.47824513	82.17258315	81.439553	81.09757926	80.51126723	80.08316248	79.79699013	79.31258808	79.20093259	78.76990995	78.67372894	78.43578131	78.20281636	78.24066578	77.85858917	77.81097551	77.31534993	77.10193565	76.83586467	76.45153115	76.48684415	76.11442913	76.20114968	76.12595159	76.18997678	76.5761913	76.68869712	77.53752414	77.82277957	78.72765073	79.48575453	80.23055406	81.37404702	81.93225167	83.05876645	83.37662437	84.05556072	84.44775668	84.4640385	84.78281472	84.07671495	83.9306925	82.81165244	82.07376237	81.20436512	79.89258645	79.27765517	77.45341908	76.75429327	74.94452841	74.08943003	73.22371639	72.28091396	71.95908182	70.76560107	70.37778161	69.06903596	68.66985356	67.91373166	67.65415677	67.96265932	67.76956489	68.18371755	67.91143834	68.13827896	68.26726636	68.17503877	68.84707329	68.46303801	69.23171442	68.23542196	68.3525949	67.07146454	66.88800326	66.715065	66.7019577	67.14532401	67.49612149	68.2966697	69.03319758	70.13429884	71.7116016	72.96247482	75.17399875	76.25492512
82.21986181	82.74012063	83.34987848	84.07704787	84.87731379	85.71238708	86.40273493	86.95212069	87.41648518	87.7829465	88.09658397	88.28729317	88.33070096	88.24426061	88.086337	87.93308744	87.8610278	87.91515766	88.07021054	88.25662093	88.41898485	88.585538	88.79896129	89.07517312	89.42983385	89.80852855	90.21939087	90.58397883	90.89941892	91.08786566	91.12696284	91.04603854	90.77040239	90.36707653	89.80963412	89.13355879	88.36203627	87.59638492	86.94688138	86.40586784	86.04564528	85.77730075	85.61277216	85.52758997	85.49352126	85.55530548	85.65273978	85.80652202	85.93843356	85.97433888	85.986428	85.92594077	85.89162306	85.85614152	85.90268152	85.97930839	86.09617545	86.26850059	86.48475994	86.76951738	87.12690735	87.48610479	87.89481562	88.34860923	88.83536391	89.33622811	89.87015048	90.39283822	90.89776611	91.3376666	91.6804116	91.92379899	92.05121821	92.04645192	91.90910617	91.66287162	91.26853943	90.7557165	90.1543163	89.46058724	88.763151	88.03531855	87.30949332	86.58477436	85.91750613	85.26393197	84.64104323	84.04860757	83.49902344	83.01359697	82.52197404	82.05874356	81.62014771	81.17684104	80.75626027	80.37415869	80.02982816	79.7003049	79.41529361	79.14242623	78.79492673	78.60171439	78.32740506	78.07053791	77.82921808	77.63282845	77.41073955	77.17358052	76.9501211	76.70114274	76.5513805	76.42564878	76.24085236	76.11128374	75.97500888	75.87802055	75.79908198	75.67988517	75.58322005	75.50256903	75.47150005	75.30534848	75.16760185	75.0435902	74.9152832	74.94167813	75.13494596	75.44681341	75.92649009	76.46930278	76.97719158	77.39989818	77.84012188	78.26827656	78.548215	78.87713207	79.05644989	79.08316109	79.00579557	78.84953516	78.711002	78.65779044	78.73965038	78.93121407	79.20898576	79.68892392	80.21463568	80.85520311	81.53391613	82.27975117	83.03684651	83.79866721	84.55893499	85.32473408	86.06646867	86.77668138	87.3928507	87.92662603	88.30202762	88.58543327	88.69760687	88.72595215	88.62187888	88.38597176	88.04676819	87.60249329	87.13056668	86.60369596	86.0940309	85.60268194	85.0997148	84.6828967	84.29251723	83.94477012	83.6303267	83.35513791	83.16808458	82.93704085	82.80722323	82.66494196	82.52172574	82.37683175	82.14223688	81.87140725	81.59384086	81.39451391	81.22362102	81.06152205	81.02184018	80.98551109	81.04676195	81.22529325	81.48693986	81.94741058	82.51843262	83.21770547	83.95630576	84.77425038	85.64763711	86.494597	87.33275466	88.02455139	88.56376787	88.92908478	89.06616419	89.01683946	88.73872722	88.27710238	87.5831708	86.72501998	85.71007468	84.5524507	83.42747567	82.25390556	81.07827898	79.95464602	78.79684032	77.71472307	76.73708413	75.71011144	74.75892917	73.98957062	73.33401836	72.68022849	72.399129	72.22010526	72.17776351	72.33471472	72.63627971	72.97968292	73.43185841	73.85013511	74.16623965	74.37263489	74.43977009	74.20906206	73.92314633	73.46099854	72.96173442	72.52811501	72.11956579	72.00167153	72.11504156	72.39214186	72.94872076	73.79573337	74.84385751	76.09152985	77.47167067	78.88924893	80.22113661
77.95048315	78.50846447	79.34039653	80.04384058	80.84090216	81.59505809	82.20755768	82.77083726	82.93606775	83.31982353	83.41566398	83.64958746	83.52380094	83.51565344	83.24204115	83.24046672	83.0703777	83.31627516	83.36573306	83.76655024	83.89515409	84.13651414	84.26049597	84.56182584	84.8469807	85.25891044	85.622277	86.03989618	86.33766244	86.57206795	86.68111628	86.59510595	86.42252419	86.00050215	85.51471225	84.75623876	83.9839103	83.07054346	82.32872356	81.68110171	81.25287767	80.94401966	80.76021021	80.71190227	80.66834745	80.76711759	80.90799991	81.08469738	81.28362621	81.40460066	81.49337075	81.41753804	81.43304929	81.35144251	81.3793758	81.39095445	81.51270572	81.64268286	81.87026978	82.16811787	82.44879775	82.83093955	83.18729401	83.67649009	84.09844901	84.64766277	85.13793668	85.69554693	86.19406683	86.69733845	87.13720911	87.46291976	87.73047985	87.81411258	87.8249699	87.62122414	87.35975161	86.90938776	86.39894936	85.76658977	85.10901642	84.36781519	83.6444286	82.9276345	82.21552346	81.54581035	80.85446167	80.28687494	79.69052401	79.16971033	78.61733107	78.10128299	77.67264418	77.17563699	76.75229714	76.36618389	76.01656827	75.68957311	75.37427868	75.08798218	74.84512745	74.57955725	74.35585993	74.10288239	73.8751727	73.6710864	73.39388206	73.22313829	72.93897109	72.74017473	72.4334585	72.24712857	72.12821822	71.92189928	71.7406533	71.61821123	71.51587608	71.3421402	71.23083357	71.07537703	70.9918199	70.71220675	70.65531852	70.24392145	70.36910941	70.14905964	70.57769498	70.75759749	71.5189098	71.94461892	72.75648915	73.11932373	73.91784599	74.13534477	74.65974288	74.69929851	75.11913091	75.00530035	74.98710702	74.73477103	74.58693626	74.44792591	74.49868011	74.64597112	74.97442904	75.51495708	76.10483135	76.73985776	77.35440688	78.11384999	78.81409524	79.56837186	80.32665808	81.08535004	81.8411567	82.52270508	83.16544897	83.68425335	84.10897203	84.4069304	84.56370614	84.58905237	84.49064914	84.28728346	83.94132579	83.55564048	83.05445376	82.56355355	82.00357056	81.51418027	81.00297338	80.52484686	80.14120275	79.74816062	79.43516402	79.14173057	78.92007654	78.739108	78.60245514	78.48656741	78.34700706	78.21271307	77.9805825	77.73862665	77.40777796	77.24867734	76.98212364	76.92180009	76.72902888	76.8341217	76.73329787	76.98375216	77.13185466	77.6796556	78.18392598	78.97422513	79.68777327	80.52422402	81.39709611	82.23127816	83.0616892	83.75349704	84.37019903	84.69750491	84.89062916	84.78475675	84.54941004	84.0607716	83.41477689	82.58683985	81.52453336	80.42599418	79.16140678	78.00328688	76.68801325	75.68071955	74.48545005	73.59673725	72.51297691	71.66587691	70.62414898	69.9940893	69.08094025	68.65249911	68.25256556	68.20489987	68.1265987	68.2549383	68.393099	68.64078522	69.06344813	69.43874845	69.74608959	70.11169364	70.05537484	70.00250383	69.46126834	69.16867967	68.35006506	68.11370156	67.7282805	67.71875277	67.67222595	68.0921291	68.48798024	69.56811454	70.39538852	71.99512759	73.14059171	74.99675751	76.1219961
75.0290295	75.19965883	76.28097083	76.90178715	76.99424848	77.88089163	78.22383707	80.22288236	80.68550179	80.61262582	81.37008875	81.43750277	80.1274532	80.25396104	79.86514906	80.69608792	80.62306213	80.11811274	80.61652582	80.69659008	79.31258288	79.83183601	79.8967684	81.26970707	81.6999425	81.72664192	82.49470347	82.80028499	81.7146929	82.09081095	81.90650558	83.31665733	83.15366918	82.26988983	82.3490448	81.6645272	78.94892155	78.40256535	77.50211577	78.29124347	77.86949123	77.07544951	77.29537444	77.09798813	75.38921322	75.70663764	75.62964873	77.76018455	78.0734787	77.81051774	78.4877465	78.4661782	76.12600777	76.27465682	76.07614968	77.7810551	77.87550631	77.45991585	78.10824793	78.26603283	76.0253823	76.60828885	76.80774758	79.58100059	80.15905484	80.25006381	81.2415501	81.71654094	80.51237176	81.16057552	81.30948535	84.1613343	84.4192224	83.95960132	84.4537898	84.2319062	82.05818072	81.88033191	81.18637813	82.30183966	81.68579656	80.51884044	80.21404405	79.39977472	77.2917536	76.8211441	75.91794933	77.20676214	76.74903176	75.79602952	75.77837164	75.26573875	73.45293288	73.16206082	72.52379053	73.6080676	73.24867873	72.3148124	72.47391649	72.10431671	70.28730601	70.32571446	69.94071093	70.92595291	70.81169302	70.23776349	70.35683476	70.01877074	68.96371148	68.9050456	68.36557874	69.79093309	69.6888934	69.04978457	69.5617107	69.44660811	68.37837982	68.47588071	68.16464788	68.92817376	68.69840206	67.74806942	68.01601445	67.83218765	67.07743835	67.40773773	67.52072213	68.51489535	69.1638898	69.33748072	70.44320783	71.03008097	70.45324499	71.01069572	71.05443226	71.97398758	72.1039994	71.50633066	72.11109057	71.93388263	69.96640778	70.07333582	69.91759005	71.52265757	71.81921213	71.71330851	72.68711818	73.21969015	71.82798282	72.78643175	73.3259208	75.8162658	76.69471637	77.02705141	78.24886357	78.88984299	77.41452581	78.12622972	78.3003436	80.65188703	80.85897792	80.38024729	80.83420597	80.56237342	77.46620282	77.27788717	76.60848548	78.28513197	77.8331819	76.83099504	76.79110579	76.28086853	73.28470403	73.12944169	72.60371538	75.03466658	74.87058258	74.17446206	74.47059978	74.23016565	71.65901774	71.70396735	71.29187809	73.62354383	73.44875995	72.88118085	73.16201886	72.95229582	71.49963483	71.7307174	71.60051901	74.37723194	74.78758101	74.81017581	75.93084647	76.59669564	75.89341562	76.94767865	77.63822347	79.8429236	80.62739528	80.62195344	81.51360356	81.65722205	80.51791174	80.61238584	80.0830092	80.79045625	80.16592511	78.93126436	78.23450089	76.97446754	75.21870873	74.13762561	72.64733436	72.98140786	72.01620206	70.57486309	70.19355496	69.23718539	67.2921479	66.66474602	65.66691104	65.94426103	65.63668407	64.73720273	64.98273884	64.96535769	63.40431213	63.93178905	64.05286269	65.12524275	65.67364918	65.66109813	65.99939936	65.65979212	65.02705106	64.75170413	64.12396379	65.68058777	65.6541214	65.36219649	66.25911747	66.72023253	66.03254734	67.31258635	68.45124713	70.50335659	71.99475826	72.82679853	74.49581112
73.39718905	73.72692732	74.17354306	74.73411283	75.36184415	76.12891388	76.82903498	77.45917788	77.99563945	78.33994848	78.64448686	78.70321378	78.60729009	78.36420233	78.06853138	77.73509355	77.5769369	77.47241558	77.48331313	77.54818309	77.67424427	77.81456479	78.02205658	78.33838029	78.73082456	79.2026284	79.72475919	80.18884	80.60881112	80.92538244	81.13392639	81.14859564	81.06084165	80.7861772	80.38816556	79.78377533	79.07470356	78.25173465	77.38613475	76.73229148	76.196923	75.85557001	75.63199685	75.50940358	75.42863603	75.38795679	75.4962824	75.60157221	75.80648457	75.9958718	76.09329778	76.09151806	76.05192774	76.02160645	75.95908911	76.04325312	76.12418574	76.25708355	76.43135071	76.65639496	76.98538763	77.30533739	77.73869532	78.15635473	78.62561174	79.14291867	79.66107039	80.22720198	80.75007976	81.27830644	81.71030912	82.06503018	82.28791878	82.39903884	82.39508681	82.23414542	81.95242934	81.55111001	81.05064184	80.43673429	79.79185208	79.08604084	78.37050767	77.71891923	76.99955472	76.33037845	75.65535043	75.06256728	74.45636333	73.86692047	73.36440208	72.7873015	72.38783403	71.87155914	71.43372345	71.03441689	70.66332384	70.38403598	70.00758501	69.74927174	69.44992898	69.18761444	68.98951305	68.64005557	68.43028814	68.08837891	67.87465668	67.64107167	67.4016037	67.22997145	66.96186204	66.82141529	66.57025701	66.4160503	66.16793893	65.99421553	65.95104426	65.70317494	65.62808921	65.38976218	65.24824732	65.10078846	64.86379103	64.82677182	64.6932158	65.05873247	65.5161008	66.04813246	66.76476843	67.35221585	68.070712	68.57881997	69.13987663	69.56492962	69.83691059	70.14389801	70.08315	69.94142706	69.60755296	69.34714508	69.10843381	68.96829501	69.06085413	69.13875996	69.52992665	69.96381656	70.48249539	71.11051386	71.73733521	72.50313637	73.21597221	73.99495212	74.75689489	75.51480033	76.29732236	76.98856215	77.66376842	78.23451025	78.70747514	79.01453122	79.21782476	79.27989821	79.21193418	79.01071999	78.68909454	78.2784077	77.78616541	77.29584087	76.732408	76.21138972	75.73798509	75.28523879	74.89233052	74.48766119	74.20713737	73.87250727	73.67201718	73.43802296	73.22950537	73.09650144	72.88534338	72.70509477	72.42786407	72.24982452	72.05183966	71.82700556	71.73582944	71.58412378	71.62752325	71.68938723	71.8437174	72.12786241	72.46940058	73.01953749	73.56510024	74.26471988	75.03162107	75.85677476	76.76443412	77.5752612	78.30467155	78.87780484	79.24987724	79.44770397	79.41230358	79.20090068	78.77036355	78.124287	77.28327664	76.21713326	75.0409969	73.8361109	72.56480061	71.3828555	70.19046853	69.16204557	67.94837189	66.75688865	65.79597889	64.70699414	63.92939897	63.230355	62.62870268	62.1478001	61.67808151	61.6381347	61.49536202	61.8205393	62.20898576	62.52161061	63.12344603	63.41622855	63.67912154	63.77225356	63.79449567	63.7568349	63.21478133	63.07361984	62.76545819	62.59155967	62.66478452	62.75588781	63.22895813	63.80612391	64.66554018	65.75329	67.05681818	68.6501607	69.96080537	71.2973879	72.50538913
73.33710064	74.02252128	74.70214428	75.46563443	76.2727238	76.9437353	77.6442129	78.11079268	78.46029871	78.68664135	78.85130171	78.97485976	78.9416275	78.86103751	78.65435583	78.47183297	78.35131281	78.36119496	78.5441305	78.78256295	79.05479292	79.27968459	79.50579418	79.76368783	80.08310838	80.46470711	80.89859564	81.31948159	81.67999753	81.92012995	82.03424905	81.9999896	81.83556227	81.47755085	80.93878174	80.29219194	79.47996313	78.68737862	77.90755671	77.23816403	76.81545535	76.47266665	76.33641468	76.21565732	76.22240309	76.38803864	76.51289853	76.77467277	76.92069175	77.13200725	77.23880005	77.22880693	77.22589527	77.13729026	77.14514992	77.17059742	77.22184545	77.35073506	77.53067988	77.80170926	78.05878518	78.41110091	78.78842857	79.22259105	79.69039015	80.21550612	80.76082542	81.28054532	81.82249797	82.29609056	82.71990204	83.0544496	83.26497442	83.33170665	83.28417206	83.10152505	82.78254908	82.3462462	81.80547818	81.21005526	80.53079778	79.82775532	79.09913982	78.40336609	77.74245037	77.05870195	76.46645979	75.83036041	75.2750043	74.75708355	74.21648407	73.75522752	73.26964084	72.83238914	72.38115207	71.98887357	71.6347462	71.24911985	70.96085566	70.5625437	70.2942491	69.9845692	69.72381869	69.52028309	69.21363831	68.99644331	68.69518349	68.48798509	68.26325503	68.02204826	67.84674142	67.56244382	67.51309343	67.24569841	67.03368863	66.95586603	66.79865126	66.65757197	66.47643419	66.28858532	66.13980727	66.09268466	65.90907288	65.64475042	65.64128182	65.64597667	65.91736741	66.36453108	66.95480693	67.60280817	68.26335421	68.92982552	69.37559162	69.95776228	70.30977561	70.57687031	70.83489852	70.80065987	70.66158364	70.45416121	70.29954321	70.22900807	70.16370461	70.32202911	70.53468808	71.01307886	71.55438857	72.10990698	72.78092679	73.47260007	74.23009005	74.92830866	75.68912853	76.46429721	77.22207642	77.96896016	78.61253634	79.17104409	79.63606193	79.95513985	80.15590113	80.22238645	80.14940297	79.92373657	79.60743436	79.18877342	78.71810289	78.20287392	77.68001556	77.14880649	76.69529932	76.21543468	75.81161499	75.44877694	75.11120605	74.86886111	74.64094266	74.45378945	74.25795122	74.13393125	73.93392459	73.66553081	73.44580564	73.13544811	72.88985235	72.73500408	72.5796703	72.49677693	72.41063898	72.49015253	72.55543449	72.84427504	73.21394695	73.73574898	74.38535794	75.10208962	75.86928766	76.65396396	77.52602872	78.38271817	79.14698722	79.7782031	80.20463839	80.47696062	80.4920689	80.33182179	79.90424694	79.32307087	78.53232644	77.53564037	76.46023629	75.21804324	74.0550551	72.76910608	71.69129042	70.63375508	69.50413652	68.58688701	67.43168918	66.48739312	65.48165027	64.66629895	64.11609268	63.43263383	63.19649089	62.75055729	62.57348043	62.64345308	62.68893537	63.06781457	63.36502977	63.73839153	63.82952222	63.87181403	63.84523704	63.50480721	63.41431046	62.96231877	62.78277102	62.80219754	62.8077136	63.07321028	63.50788394	64.30041053	65.12005095	66.30654318	67.71807064	69.08424412	70.78239961	72.16514171	73.40552798
72.0417418	72.77501054	73.74993411	74.74061584	75.67473047	76.63933147	77.22915511	77.86499093	77.99959009	78.43252633	78.52250671	78.89830849	78.83627181	79.0090873	78.77615287	78.86209037	78.74416767	79.06533536	79.19501565	79.69970564	79.94022508	80.32928675	80.53792641	80.91825728	81.25658902	81.72624692	82.1327695	82.56028817	82.85454143	83.05548026	83.10126634	82.98619912	82.72725261	82.29413189	81.71416543	80.97583355	80.22623652	79.42082006	78.75959015	78.19723233	77.78070276	77.44981454	77.21169558	77.05478391	76.94778304	76.92694716	76.95145694	76.99253637	77.02710932	76.97021623	76.90629647	76.79224743	76.77796242	76.72933197	76.83968076	76.88562844	77.11515184	77.24749201	77.5075961	77.76757604	78.11854623	78.52030598	78.93306455	79.48386799	79.96086953	80.58002541	81.08908428	81.70417994	82.18706374	82.69097137	83.02707811	83.27793746	83.38731454	83.3343707	83.16635895	82.79634025	82.39372739	81.76615143	81.16191101	80.39160156	79.66170086	78.86044866	78.1458879	77.44120164	76.75403872	76.1742741	75.51064162	74.95658389	74.37988836	73.87766751	73.37610488	72.9420173	72.5149765	72.13388824	71.8351163	71.45051783	71.12360313	70.74291923	70.47976823	70.20032709	69.97972107	69.57880263	69.35927027	69.14787986	68.81022505	68.47668249	68.24601329	68.07937483	67.88834381	67.67891693	67.42362074	67.25549941	67.1463949	66.97316326	66.91570282	66.83626973	66.91259349	66.83442965	66.80065016	66.63799251	66.68278469	66.31325739	66.24491813	66.16213538	66.15234687	65.83590109	65.93192257	65.77040273	66.13013493	66.305104	66.91403614	67.22774644	67.99260053	68.27855856	68.62084198	68.88945354	69.27821003	69.46399827	69.73591683	69.73028356	69.85439301	69.89927188	69.96969535	70.19018416	70.49000133	71.04153165	71.48891102	72.18064534	72.80710741	73.52881276	74.23990839	74.93320743	75.7059236	76.40278556	77.2371521	77.88748377	78.59873754	79.10073644	79.58832827	79.85505329	80.0497381	80.09643555	79.97318129	79.78571528	79.42154694	79.0299322	78.49641141	78.02385157	77.44718725	76.95198475	76.47919187	76.02612998	75.68199505	75.29482755	75.04781827	74.7327111	74.56704434	74.35622475	74.21911274	74.08532923	73.87929812	73.64762601	73.3009706	73.01952709	72.67932198	72.45456071	72.13879949	72.06148113	71.80589641	71.82677321	71.74490565	72.02364003	72.25142045	72.82891568	73.33118092	74.03479628	74.73285814	75.56160181	76.36355938	77.28349165	78.13685816	78.9252569	79.55524167	80.00463659	80.28408536	80.32371937	80.21211659	79.84381312	79.36531206	78.61178589	77.71536255	76.66382113	75.52114383	74.34734761	73.11541124	72.0625437	70.99078924	70.08997692	69.11823342	68.31205958	67.29055994	66.60052352	65.89891885	65.45342775	64.86308566	64.65326725	64.47056059	64.42301906	64.47445159	64.50688622	64.71382939	64.86305063	65.0503703	64.94844853	64.81485367	64.71036079	64.29211703	63.74607364	63.10664368	62.83079772	62.62229607	62.57737628	62.72918389	63.12959463	63.73062307	64.72726579	65.74859168	67.22546213	68.65012602	70.36773439	71.62866003
71.28591746	71.9386503	73.63701456	74.72478381	74.88011412	75.91003245	76.21895218	78.2745937	78.58329565	78.47811682	79.06338986	79.13291792	78.27574643	78.52832864	78.24541404	79.32370758	79.41626254	79.05066889	79.72957195	80.0114219	78.8510548	79.51547172	79.64110843	80.54145397	80.9225554	80.9537728	81.61988761	81.87991333	81.25924613	81.59622609	81.35220961	82.72738717	82.59555262	81.66660933	81.90751856	81.31272611	79.54389468	79.08871807	78.3270125	78.68552468	78.26512978	77.41293751	77.50127966	77.22091536	75.79129549	75.98186042	75.76332404	76.91722003	77.10634093	76.65212007	77.24541023	77.19343047	75.74813392	75.85911664	75.66173796	77.06960505	77.16600314	76.71952889	77.36096885	77.5062783	76.16280989	76.77440851	76.99468092	78.93757421	79.57877835	79.75627344	80.79667386	81.33233435	80.51057503	81.168525	81.35201957	83.35051311	83.58324987	83.04811582	83.52121249	83.24973297	80.91714928	80.70068186	79.94806567	80.6626202	79.97446338	78.78029667	78.3769077	77.50642846	75.42713894	74.9055318	73.98406254	75.39022758	74.90025746	73.89859633	74.01105985	73.53999606	71.40191096	71.16710871	70.60293163	71.52643516	71.20396007	70.32381647	70.3972598	69.98021698	68.04942669	68.00617079	67.52320584	69.0346645	68.98129758	68.38862471	68.7691692	68.53576452	67.06413893	67.024043	66.62317657	68.15013331	68.08834908	67.52229032	67.86099659	67.69157548	65.29224326	65.47351629	65.28674455	66.43952977	66.37481585	65.73545803	65.98834541	65.7148871	64.61897659	64.73169951	64.42371056	66.57171804	66.79973498	66.64912588	67.54915341	67.89282227	66.89684746	67.49905222	67.63229058	68.97283762	69.34349442	69.16362242	69.97757894	70.09603986	68.43641628	68.80890066	68.77379365	70.44778512	70.82059063	70.74301286	71.68017925	72.17511888	70.12195969	71.03047562	71.51807508	73.80767371	74.64282955	74.9827274	76.20594198	76.82905683	75.57310659	76.28248215	76.46158218	79.48165477	79.71180864	79.25439314	79.71166645	79.44023757	77.14566213	76.92741013	76.2232177	77.61281343	77.12294457	76.08035937	76.05073859	75.52647296	72.9985948	72.89324743	72.37611597	73.96621392	73.85003211	73.27620107	73.58634082	73.36570011	71.92508767	71.90912281	71.37860454	73.22548433	72.91905802	72.21487184	72.44122349	72.11775589	70.55116792	70.65166369	70.39713322	71.92818936	72.21205694	72.10679696	73.08528761	73.6864624	72.87635907	73.90333869	74.59027967	76.62365619	77.55739559	77.92603822	79.05240111	79.52799329	78.91431392	79.36902792	79.15791217	80.43792794	80.18916182	79.26553553	79.08223031	78.13194899	76.21783343	75.24228564	73.87665246	74.04137386	73.00448158	71.34734414	70.98108604	70.04776695	68.37315854	67.84151597	67.02567638	67.07219072	66.59820349	65.68431473	65.78120041	65.5481772	64.51349085	64.75119573	64.64253027	65.46226363	65.78870114	65.55980197	66.28322497	66.27622951	65.27064792	64.96727961	64.07594126	64.96187279	64.48219265	63.66797395	63.97314627	63.94001666	62.75883657	63.54024887	64.07468518	66.01559275	67.41557693	68.5671678	70.30936501
90.99645996	89.8569766	89.71676428	89.07657762	85.4788208	85.2671807	84.69285861	87.96186135	87.82987699	87.20746266	87.56190421	87.23430634	84.10693706	83.56092002	82.33528761	84.30505995	83.10995137	81.55557459	80.88902907	79.75122695	77.10187843	76.38613996	75.43894646	77.62994003	77.57376896	77.29705568	78.167623	78.65124269	76.86755995	77.63879811	77.94202215	80.09369001	80.63076123	80.62408967	81.64404401	82.12473887	80.23321152	81.02099921	81.43771397	84.268597	84.96684889	85.13717998	86.27765031	86.90729592	84.51242724	85.2573204	85.47043089	88.21010902	88.39693208	87.86372896	88.18247535	87.78261393	84.37475933	83.96832622	82.99089744	85.19062285	84.41231363	83.119116	82.80153899	81.99122446	79.03862624	78.56704851	77.73671029	80.10110855	79.59233544	78.67710079	78.75187926	78.28218599	74.98412635	74.77036667	74.14296757	75.97256123	75.65241103	74.91287162	75.02391885	74.66135198	72.40401077	72.27003236	71.72478867	74.17136556	73.87584166	73.07715711	73.23329752	72.82833481	71.31205472	71.12913444	70.58976121	72.12106566	72.08133316	71.70605434	72.64280111	73.09529148	71.34898168	72.13739291	72.52535525	74.12586177	74.78334912	74.91276516	75.99590891	76.34473454	74.77298043	74.97307379	74.68780934	76.83801374	76.88597627	76.48857429	77.05177827	77.13625093	74.79953038	75.06961372	74.81784647	76.57339755	76.55835724	76.08861126	76.62539118	76.65067083	73.45394169	73.87419371	73.81678668	76.39373606	76.68419266	76.45996406	77.10983311	77.12607401	74.83933917	74.8688462	74.27963708	77.02867681	76.56931097	75.34188288	75.29318029	74.80896204	72.30934178	72.39584108	72.31984052	74.66805371	75.0513975	74.93807186	75.9532606	76.41155971	74.40173062	75.13232977	75.3874262	78.00779689	78.366436	78.09367891	78.9127062	79.17040773	76.17336863	76.75989914	76.9695653	80.25126301	80.92744585	81.10472523	82.36391518	83.20208255	79.64757087	80.78454833	81.41836999	85.55675056	86.21806162	86.18465111	86.92810301	86.96154334	83.98432992	83.94642154	83.32469801	87.321236	86.77614628	85.65982992	85.54305926	84.92886873	81.0006263	80.76931901	80.16610856	82.76400306	82.58517213	81.90757925	82.23631391	82.06421557	79.80230401	80.01440187	79.84039341	83.35033833	83.58086811	83.30618633	84.05608992	84.26812813	81.4719058	81.97186695	82.01900898	84.40790142	84.40911241	83.66826491	83.66391546	82.88038843	78.72167136	77.87039254	76.55654283	78.6167984	77.7047896	76.40466378	76.18001834	75.67189026	73.31875576	73.6416789	73.7624855	77.62867425	78.43974755	78.74418536	80.00129526	80.70768287	78.97552768	79.93010018	80.49306904	83.45274041	84.31896106	84.69868851	86.03692592	86.90225948	83.94264187	85.14774635	85.92408232	89.32724276	90.25210294	90.46303558	91.47530573	91.71550335	89.20858348	89.28819275	88.74680606	92.14576582	91.46388175	90.06719	89.53809495	88.40811088	83.68490115	82.95427426	82.03503765	84.17262476	84.06617043	83.68276007	84.46548601	84.88124709	81.99594879	82.89067216	83.41845079	87.85863842	88.63309479	88.68653384	89.55603721
92.39627942	91.24367766	91.08967209	90.45755872	86.4158131	86.20545959	85.63658142	88.28312302	88.14612267	87.51987284	87.87060304	87.53781232	84.47055747	83.95592221	82.77023038	85.18769594	84.01184602	82.25426657	81.63349325	80.49019519	76.40569305	75.6668285	74.7026929	76.92292127	76.83661201	76.45778621	77.29484523	77.77315278	76.43755583	77.15922512	77.45073735	81.04058977	81.5957926	81.63872667	82.60371399	83.08779977	81.20581714	82.00160599	82.38058923	84.99925821	85.69580668	85.90052137	87.04251549	87.66863216	84.78394872	85.49765986	85.7139629	88.4955753	88.70089756	88.17347266	88.47025889	88.06762383	85.05226135	84.63168404	83.69639657	86.34489198	85.58787849	84.26977504	83.94378905	83.11739107	79.7426359	79.28353986	78.43792759	80.39347909	79.91919916	78.88107508	78.98692044	78.46881728	76.24176823	76.06205923	75.45196707	77.78151946	77.47861377	76.548112	76.6541266	76.23600734	73.78973146	73.64152978	73.10274194	74.53695956	74.19791135	73.16760947	73.25800948	72.80331698	71.74702384	71.55021043	70.89242692	72.83640983	72.81706723	72.5664652	73.46701882	73.94702495	72.11628238	72.89773976	73.30317757	74.65402499	75.32613789	75.47399764	76.41917142	76.74652724	73.43230612	73.61973537	73.30721179	75.81730964	75.88014325	75.48406324	76.09816915	76.16603123	73.16955948	73.45747341	73.27642371	76.61485915	76.67615162	76.26277854	76.8203229	76.85205356	74.4208055	74.74726937	74.73886108	77.99745317	78.24742126	77.95278029	78.64661962	78.58811812	76.48492744	76.4268622	75.83929755	77.8739898	77.38029168	76.28499638	76.30300591	75.83389941	73.74167078	73.83047971	73.7427382	75.87642635	76.25728364	76.17868493	77.09874066	77.59367197	75.57012905	76.34701434	76.57838683	78.76938907	79.15181593	78.9220907	79.73147791	79.9827978	77.88080701	78.50109343	78.75364373	81.90245368	82.568762	82.78351003	84.0594909	84.8919487	83.2682398	84.40162173	85.05021182	88.23706367	88.90408776	88.83590733	89.56847763	89.6110226	86.08303139	86.05237441	85.42685075	87.43918089	86.91645709	85.81291719	85.69631854	85.07625892	80.77970366	80.57699828	80.00152623	83.18174952	82.99494449	82.32987837	82.67469371	82.50444655	79.45623467	79.67587523	79.49281762	83.40907808	83.58557441	83.28129196	83.98975407	84.18765432	81.73556935	82.25325012	82.28126873	85.40364248	85.40543053	84.63837814	84.6418301	83.864632	79.49788527	78.7043131	77.46800856	79.15728725	78.232889	76.90378328	76.71660787	76.21062712	73.0029928	73.29389329	73.41778218	77.47029634	78.23596157	78.49938237	79.78510805	80.51089304	78.1220828	79.07280454	79.62470523	83.47338139	84.34787507	84.7580771	86.11168289	86.97032061	84.5141983	85.71310286	86.48943676	90.57882864	91.51018767	91.72463053	92.73018473	92.97021103	90.21346006	90.29273085	89.72718048	92.59134362	91.93443819	90.5213363	89.97736047	88.82996334	83.95335388	83.24100772	82.31813327	84.70992244	84.60244716	84.21177708	85.00948646	85.40546105	83.05632366	83.97104159	84.51494737	89.11349591	89.86803471	89.9554426	90.82445838
93.70335041	92.54119596	92.33948725	91.69776362	89.87783744	89.65656489	89.12976976	90.25632407	90.12666598	89.56890245	89.93931163	89.62063252	88.03700672	87.51912273	86.37452906	86.59449699	85.36968231	83.64006389	83.0385007	81.85884788	78.82384422	78.13015886	77.2120618	78.00094535	77.88145655	77.49058047	78.4535897	78.95893305	77.84929518	78.62783536	78.97630241	81.33022308	81.93527083	81.92051974	82.87495908	83.36037029	81.73183441	82.51231176	82.8927321	85.14885642	85.85538205	86.09732611	87.26986556	87.87254611	86.71934856	87.46894004	87.66767606	90.25373285	90.45184881	89.93941706	90.27109111	89.88524905	87.63315513	87.22174211	86.25503055	87.27851521	86.48402058	85.12667708	84.76528376	83.93274758	80.66336788	80.19764536	79.36248398	80.31200097	79.81799906	78.81329658	78.8458193	78.36027631	76.91233964	76.76443273	76.19071752	78.44658071	78.1747114	77.37349874	77.55637186	77.14027648	75.48016704	75.41357006	74.77436204	75.65982715	75.39873955	74.60420331	74.64187657	74.17143562	72.89225145	72.73069555	72.00080525	73.40743013	73.41080579	73.29997774	74.07628319	74.41257303	72.4460848	73.21503344	73.60010355	74.91189645	75.64241652	75.94258881	76.63362676	76.8160338	75.13718345	75.3381847	75.08937558	77.42553503	77.47453308	77.15735418	77.74724718	77.80355974	76.91815186	77.18004886	76.93139232	78.8221706	78.88557295	78.38209603	78.93944827	78.94970842	77.72964686	78.13493278	78.10471413	79.28992115	79.55158442	79.2350665	79.69565305	79.61384652	78.13466471	78.17688578	77.68475446	78.42373553	78.06462271	77.27465994	77.1883812	76.67427375	75.71227993	75.68360936	75.46596562	77.10133778	77.35902058	77.04106071	78.06461196	78.46080017	77.3882474	78.26165147	78.65955977	79.79089633	80.30594011	80.25836043	80.8788577	81.10455461	80.3079938	80.86770977	81.07580566	83.1031612	83.77457983	84.02956044	85.35725056	86.1932914	85.46431802	86.64970953	87.3252071	89.4145702	90.04275929	89.98511228	90.66121188	90.66434132	88.4608345	88.46185407	87.87538459	88.86789946	88.36496284	87.27489506	87.09953273	86.45174373	84.07594126	83.83450907	83.256683	84.97509003	84.80557736	84.13237277	84.49974615	84.34509832	81.00924683	81.21000186	81.02735832	83.08585635	83.27998838	82.95882138	83.67876642	83.89410747	81.86844808	82.38715259	82.4187036	85.89592292	85.9394396	85.28590705	85.26443863	84.50816796	82.4313195	81.62109098	80.28977273	81.55382503	80.69158762	79.42477174	79.12520357	78.61743892	77.02070652	77.31536969	77.42181015	79.26044464	80.06825256	80.44753196	81.68040674	82.36003182	81.47605688	82.47358565	82.97253279	85.1778398	86.04687431	86.41974085	87.73194261	88.59534732	87.64225492	88.8352238	89.62366763	92.11970173	93.04828574	93.24509291	94.2277076	94.46987707	92.68552329	92.75912129	92.20088681	93.41764069	92.73383747	91.33291418	90.80619812	89.67018682	86.92266326	86.21698449	85.33196293	86.68533776	86.55295251	86.16981056	87.00952391	87.41643628	85.89415845	86.83784103	87.40064135	89.96132868	90.706939	90.78617304	91.69799042
93.35176988	92.08947754	91.96836437	91.26401797	89.26702395	89.15435236	88.60182121	90.12977392	89.97705425	89.4200384	89.79451613	89.42660939	87.82573631	87.17943365	85.96095207	85.82585352	84.59866264	83.02763644	82.52994815	81.25898049	78.97056406	78.29314319	77.48274682	77.9943109	78.06113746	78.00941155	79.49328717	80.07351234	79.44839374	80.13209707	80.50319082	82.19101715	82.68917084	82.64851033	83.98366893	84.40113276	84.23005468	84.83155615	85.1461792	86.81861323	87.51232286	87.62681718	88.97463504	89.58782751	88.60065183	89.14253235	89.47048811	90.24419264	90.55141796	90.20645627	90.6764783	90.32008986	88.41116819	87.79904036	86.86845329	87.55197074	86.85706745	85.50146554	85.26003612	84.34354747	82.30465282	81.69415907	80.90346527	81.68992129	81.29830516	80.44581257	80.6839877	80.18673845	77.74413889	77.53418003	76.93555901	77.58448479	77.36614262	76.70036351	76.97197273	76.61390513	75.0147986	74.81773758	74.25650683	75.98674705	75.68145197	74.67797158	75.03776481	74.32079801	72.94860146	72.72101385	71.95664701	72.96404197	72.81172388	72.49980302	73.15210308	73.51172083	73.28083801	73.97080924	74.5857426	75.89629711	76.7520419	77.04233066	77.87186848	78.24735884	76.76611675	77.07873813	76.79251376	77.73436529	77.84185444	77.42795077	78.12396102	78.15514859	76.43396378	76.71425317	76.43278746	78.12123073	78.04787965	77.58791802	77.96705177	77.85671199	75.77902915	76.00312528	75.9558043	77.99594082	78.23618906	78.17199326	78.680903	78.72744231	77.81478778	77.86706092	77.29845671	78.90041767	78.540132	77.43746393	77.25171453	76.76782018	74.95326684	75.20846176	75.03009761	75.9999837	76.41066014	76.47004388	77.52005594	77.90017666	77.01675727	77.86166833	78.15585362	79.95880821	80.2477847	80.15265656	81.05049203	81.29643458	79.40341429	79.9883565	80.25022784	82.20268215	82.83157037	83.10667593	84.43913165	85.24420894	83.27825095	84.4022092	85.03120769	87.94581361	88.61512375	88.5583777	89.3061194	89.3408269	86.92183512	86.86914721	86.2634905	88.59446508	88.08064409	86.99955125	86.88253091	86.26176799	83.16744302	82.96086814	82.38838335	84.36872448	84.18261649	83.42013619	83.75863162	83.54530404	81.01552027	81.21028484	81.01372736	83.74626229	83.94928603	83.60451299	84.33708122	84.58410575	82.94918234	83.50440806	83.55660699	86.13496364	86.15412938	85.45356508	85.38406615	84.58731183	82.1593028	81.38295364	80.14089307	81.13895832	80.22125175	78.96423687	78.80083674	78.29204837	75.88583721	76.22253973	76.3988585	78.49904633	79.24002075	79.48940763	80.72400804	81.40984136	79.61778086	80.55014905	81.10965278	84.1219909	84.99822617	85.3425997	86.76649926	87.65790246	85.3633194	86.56520427	87.36851848	90.80658202	91.75150264	91.98150323	92.96254834	93.20950768	90.32771475	90.37673985	89.80655081	92.49255024	91.82276154	90.43746324	89.8862811	88.74257868	85.65596979	84.91249847	83.96536047	86.53088726	86.44936024	86.02314897	86.81617667	87.2232132	82.82493695	83.7261571	84.26926179	87.06381468	87.84812268	87.96124372	88.7966964
93.2225217	92.55724612	91.92559398	91.36714589	90.88660292	90.49998474	90.12040641	89.8683437	89.65720437	89.55413402	89.41617654	89.10920091	88.63663413	87.84195848	86.89355954	85.77913042	84.50206687	83.32549217	82.21546936	81.05803888	80.02336537	78.99580869	78.32868749	77.87141349	77.76470462	77.90890156	78.17887324	78.77130751	79.31094638	79.78728901	80.42815538	80.88463038	81.47694258	81.90735141	82.43372068	83.00355669	83.50821894	84.17471244	84.73478837	85.37030237	86.04562239	86.68529372	87.40855616	88.06753471	88.73201474	89.28319688	89.70361814	90.0225518	90.14634843	90.15189015	89.95820687	89.61277979	89.13044877	88.52278068	87.80871443	86.94131192	86.13260234	85.25923642	84.43417636	83.68500935	82.87083227	82.2625025	81.60537304	81.02301372	80.47584464	79.90683191	79.53053076	79.06252011	78.65994679	78.35447624	77.88704057	77.59816395	77.15028451	76.83791698	76.41969507	76.0279	75.72376113	75.23453314	74.90830161	74.66762404	74.09871466	73.82899753	73.49583851	73.32613512	73.02321694	72.66456465	72.37567485	72.21115182	72.2462068	72.45936654	72.75644476	73.49980788	73.98898593	74.4376942	74.84599443	75.35253698	76.09800027	76.62270008	77.03042394	77.37353585	77.42495034	77.50907967	77.27531988	77.21369032	77.25195174	77.19190702	77.29935525	77.29183683	77.43876232	77.55151367	77.59266871	77.63286383	77.49396862	77.6372646	77.69117876	77.83403778	78.11688926	78.18017717	78.31441082	78.41467701	78.61590368	78.77501609	78.84776376	78.98132879	78.82616008	78.65854922	78.25241297	77.70531256	77.25027327	76.66951682	76.31740848	75.77797422	75.59652155	75.59701885	75.5802432	75.71537642	75.9513959	76.38195523	76.86371196	77.39596766	77.97229767	78.44040611	78.98535018	79.33000391	79.63591905	79.93025693	80.26226252	80.59654791	80.90211764	81.31640278	81.70694317	82.25989949	82.82615939	83.58657768	84.38726529	85.253436	86.21151872	87.12802263	87.99380146	88.74701691	89.36587316	89.83231284	90.10751065	90.22373199	90.10778184	89.84910375	89.42435663	88.91680561	88.33641815	87.71225184	87.13074424	86.56200132	86.08577035	85.67512859	85.27505424	85.02386058	84.71368824	84.57419864	84.39826202	84.28715723	84.22119695	84.15526165	84.18749653	84.22414606	84.34343095	84.54418807	84.73631425	85.08727819	85.33284135	85.63411088	85.89476707	86.02523249	86.01192682	85.76190186	85.32863825	84.62405049	83.77887587	82.80995317	81.73357808	80.7758685	79.80090055	78.89057506	78.26291448	77.83240786	77.64433913	77.7890306	78.09753349	78.63425584	79.29650532	80.08035833	80.79702412	81.5516614	82.36661391	83.07747997	83.84099509	84.65131933	85.3882044	86.29051278	87.15410475	88.09397333	89.05175851	90.03933161	91.06216292	91.99903315	92.87203563	93.56861739	94.06434146	94.37877239	94.43597065	94.31174122	93.93279613	93.39828838	92.64495295	91.70105535	90.69159629	89.56457658	88.51304349	87.56737449	86.85605136	86.45174755	86.2803858	86.41612937	86.7087867	87.19595822	87.82797519	88.49638922	89.29798612	90.07853283	90.80654006	91.37509988	91.72250852
93.10076141	92.45461551	91.81322479	91.24240528	90.77782024	90.3714877	90.00909771	89.71749739	89.55833366	89.45558236	89.31781699	89.04713579	88.57312081	87.86481129	86.87428145	85.71277202	84.43897455	83.15783137	82.08243353	80.97006989	79.86224018	78.99047435	78.28961043	77.87752256	77.71329013	77.9155322	78.36120189	78.92462505	79.62296434	80.08617956	80.58757019	81.16653928	81.59231845	82.11572335	82.59412315	83.14342846	83.65151978	84.14839172	84.77427743	85.34990207	85.99873005	86.70445668	87.38696705	88.07920837	88.67916523	89.23480155	89.65938776	89.96417652	90.10952273	90.05720589	89.89493908	89.58543119	89.09320068	88.48307176	87.75069844	86.97242598	86.10741216	85.30943576	84.5586964	83.79069519	83.14309207	82.48460804	81.89889526	81.33559002	80.76256977	80.28635892	79.78537958	79.31649225	78.85066639	78.32813194	78.0017402	77.61038416	77.22724706	76.89849021	76.46980424	76.15233265	75.68875954	75.43951347	75.13407135	74.59913427	74.36108537	73.94009261	73.62340754	73.41075273	73.021741	72.76153287	72.25422807	72.11488758	71.96162831	72.1940807	72.89471297	73.33833174	73.90756711	74.40233057	74.79108221	75.40748388	75.92151087	76.72596463	77.24279924	77.64296653	77.68731481	77.49745317	77.46679826	77.37192189	77.33918554	77.4142463	77.37580664	77.56108301	77.60407673	77.639199	77.62513802	77.64881758	77.66621468	77.57125508	77.63505624	77.72167275	77.7895057	77.97011289	78.15092676	78.30477975	78.50605635	78.7334137	78.88404014	78.8595366	78.8521139	78.64350128	78.32634527	77.93407648	77.48735879	76.92737024	76.33816875	75.94279272	75.57324496	75.54844943	75.65415469	75.89105017	76.14872187	76.51156131	76.97620184	77.36611176	77.86609372	78.49681716	78.95810838	79.39240057	79.61496527	79.93291265	80.16839669	80.53710175	80.88006106	81.25597104	81.74289842	82.24103061	82.87185877	83.54320457	84.3646261	85.2712007	86.21949421	87.16176397	87.99636217	88.75779447	89.35303567	89.80613639	90.08453022	90.14077135	90.10334015	89.86851155	89.48579199	88.96815907	88.37699335	87.77546553	87.14636647	86.6255618	86.15598713	85.74784435	85.40572773	85.06336698	84.82094505	84.57793912	84.42704496	84.31693823	84.24256273	84.23742121	84.25940288	84.32588196	84.4294711	84.60530576	84.87154666	85.13719524	85.46978621	85.77958471	85.99796365	86.13586981	86.09954487	85.81406472	85.34724981	84.63176935	83.78859849	82.80827956	81.75990434	80.759801	79.66093029	78.84130027	78.17314425	77.68383095	77.49977181	77.53667658	77.95751884	78.47423345	79.14300745	79.89801303	80.63304832	81.53027066	82.25883761	82.9876702	83.82442405	84.63255033	85.49667497	86.31049139	87.18638541	88.11342968	89.07246746	90.08466825	91.05729398	92.01882588	92.89483781	93.5788602	94.09239127	94.37374392	94.44309998	94.30355627	93.96118025	93.39816145	92.63550221	91.73914615	90.67877613	89.62182478	88.578039	87.65163005	86.95289126	86.51187481	86.37717299	86.45433461	86.78178683	87.28151703	87.87770774	88.62447565	89.34263195	90.1012164	90.80812836	91.36088839	91.74167078
90.03689541	88.89474106	88.73561824	88.10013129	84.91850801	84.70823982	84.14434572	89.09482158	88.96293155	88.3577867	88.71831443	88.38754272	84.94590655	84.42644466	83.18736371	84.7877714	83.53447342	81.89013013	81.20224658	80.07670905	75.37556596	74.62755654	73.66796112	76.21959721	76.15054079	75.8202206	76.63841698	77.21316494	75.37442918	76.14013117	76.41958896	80.62430052	81.21664394	81.28065803	82.22930111	82.69463591	79.55735987	80.3458252	80.70985135	83.66965173	84.37305069	84.56172908	85.6994237	86.30464554	84.0015023	84.77912279	85.00299072	89.04550622	89.24474092	88.72683473	89.06207518	88.65802175	85.19420901	84.76331954	83.80571816	85.87992339	85.09580543	83.78835817	83.46551132	82.64004135	78.84615603	78.37398876	77.56662334	79.89942689	79.45026849	78.46331059	78.53841851	78.05265773	76.33752025	76.10700156	75.44733706	78.20083098	77.94750734	77.16069343	77.32481974	76.92844495	74.44286242	74.28146605	73.70376414	74.69285583	74.50797133	73.74676583	73.75859763	73.29658578	71.38327997	71.30995248	70.66291324	72.66274608	72.66271695	72.35704318	73.23272428	73.61262443	72.51711377	73.37007176	73.69953676	75.84504596	76.41353989	76.56478223	77.48768096	77.78195919	76.52531607	76.64435612	76.29259387	77.76361292	77.80145957	77.29430875	77.74508181	77.83878465	75.95828871	76.21085843	76.05519659	77.41664678	77.38971849	77.01298592	77.64322524	77.65577004	76.15033895	76.54663259	76.49629524	78.70260516	78.97178338	78.6559958	79.36943158	79.44800672	77.8005378	77.77917342	77.28445296	78.47518193	77.95186025	76.8386331	76.69875232	76.19655713	74.00015155	74.05979954	73.90901496	75.63364757	76.00920521	75.91059945	76.94585696	77.45401348	75.90120212	76.75847695	77.03089835	79.29877333	79.68483387	79.46745786	80.21018288	80.44848217	77.59617996	78.19252049	78.44043281	81.08993496	81.71081092	81.95484959	83.28312718	84.1160365	80.79862144	81.95162409	82.59423759	86.49426165	87.15542221	87.09662802	87.88885255	87.93640102	85.77996653	85.74535613	85.12132229	88.86579132	88.32195074	87.23154796	87.10162215	86.48534948	83.15582414	82.94290161	82.36740875	84.10510462	83.90010695	83.21378951	83.54095459	83.40516177	80.88563364	81.09801032	80.92716113	83.82307469	84.02884223	83.74081594	84.47512089	84.71592262	82.28102528	82.79302216	82.79464791	85.38734471	85.42260222	84.71433778	84.74564327	83.98099206	81.57980243	80.79664716	79.53839701	81.33383317	80.41250888	79.01367326	78.77719255	78.25852689	76.4321133	76.76457804	76.88476944	78.94075394	79.69482595	79.9635041	81.14158942	81.85440306	79.21249355	80.20526227	80.75946565	83.17813041	84.03777452	84.44288843	85.82331779	86.69419653	84.49127197	85.69264429	86.48560195	90.91448697	91.84251959	92.06453289	93.03176256	93.25335277	89.5028527	89.57661507	88.99456163	91.61324033	90.93276353	89.5033611	88.95116355	87.79569452	84.41637143	83.68547336	82.77258925	86.11574554	86.01111117	85.62877516	86.41427335	86.83491794	83.75944276	84.67805724	85.22762333	88.3163088	89.10483863	89.20280075	90.08305185
93.19342318	92.47837899	91.89533372	91.24492576	90.82123427	90.33599299	90.07698683	89.74715354	89.64543429	89.44014393	89.40156555	89.09763267	88.6512902	87.90681735	86.96104917	85.6871754	84.5461509	83.31182445	82.23979673	81.04645885	80.04810264	79.06966331	78.354307	77.90595523	77.7681857	77.91925742	78.42909657	78.82631128	79.43597204	79.84842127	80.50988423	80.9542271	81.50777435	81.9919607	82.51716475	83.04526312	83.62781109	84.20149508	84.8133323	85.44706518	86.09532582	86.75171661	87.42167317	88.1436719	88.71036252	89.31477079	89.65231185	89.98043962	90.02624165	90.07245012	89.82474657	89.55495661	89.01168268	88.42998713	87.68078891	86.93268169	86.0691244	85.27454238	84.48362316	83.74947149	83.05935045	82.34938743	81.76475802	81.12897283	80.62509571	80.07825331	79.63110282	79.15930661	78.76089824	78.18977009	77.8263529	77.49869884	77.23349276	76.86420441	76.5489169	76.1792228	75.70843853	75.39381409	74.94162889	74.60458097	74.31587289	74.0718467	73.48122683	73.09546037	72.62388472	72.36578022	71.72755155	71.73612282	71.48858226	71.87979611	72.30124387	72.84396016	73.24508181	73.93398216	74.47895882	75.10147788	75.63879395	76.48236847	76.88485926	77.46174691	77.53947796	77.4877028	77.30915347	77.26454093	77.18159069	77.30277113	77.24871757	77.41531372	77.40557723	77.45811462	77.24786377	77.25150715	77.19487832	77.32772827	77.3732709	77.5542339	77.61855108	77.88028023	78.02827662	78.29719127	78.62712028	78.88754689	79.05226066	79.11094943	79.09497764	78.93599354	78.51165633	78.15696231	77.64380022	77.10083493	76.49064567	76.08402668	75.71367992	75.64236658	75.76168962	75.90555919	76.23783042	76.57135218	76.96185858	77.44537145	77.98917597	78.62366208	78.97852534	79.55028118	79.79097054	80.02345761	80.23920371	80.5340375	80.88700242	81.35107769	81.77257399	82.34427782	82.86422175	83.59145008	84.30114399	85.25270566	86.13745464	87.14263569	87.93062383	88.80489627	89.31330455	89.83395941	90.00831881	90.21479312	90.10774855	89.91448489	89.48617068	88.9834241	88.36610343	87.73485357	87.14175831	86.5262798	86.07605327	85.61127957	85.2416035	84.93920482	84.69089161	84.47890126	84.3291404	84.22108459	84.20088751	84.18909732	84.25860041	84.33437833	84.46307581	84.67000233	84.8305567	85.14461379	85.40714749	85.77795688	85.99251834	86.1339791	86.03502724	85.84348158	85.32839758	84.72728452	83.77436551	82.92006545	81.78527763	80.86202656	79.81350847	79.02554737	78.27124232	77.97286502	77.62914068	77.79290286	78.01046892	78.72496865	79.24899084	80.1285442	80.76416154	81.61354481	82.29360407	83.13652802	83.79254081	84.74212508	85.50396867	86.44313119	87.26253163	88.2400804	89.18000655	90.18346058	91.17522916	92.10884025	92.98498674	93.63112779	94.14422122	94.38131991	94.48011225	94.24345329	93.94777888	93.29658023	92.63972681	91.66576455	90.7234393	89.5378626	88.58212558	87.56201519	86.93425057	86.43885179	86.36450889	86.4370457	86.82198195	87.2721086	87.87553544	88.55431227	89.34156938	90.08639943	90.79298817	91.37763214	91.73698079
93.19754444	92.46281988	91.88611048	91.24249545	90.84335674	90.34443595	90.08757643	89.73593764	89.61466148	89.41743122	89.34524051	89.02854919	88.61634341	87.81782046	86.85711115	85.70793221	84.52457428	83.31477009	82.0903889	80.94330736	79.91897652	78.93552676	78.16125696	77.73588909	77.66940793	77.82243347	78.22134816	78.68185633	79.21816323	79.8049899	80.44601024	80.883212	81.48314112	81.99295738	82.55463063	83.01047308	83.61293238	84.1419324	84.75526151	85.4124527	86.05464866	86.71978968	87.41600453	88.11686637	88.70976604	89.2648579	89.64540308	89.98173037	90.05471663	90.09872575	89.87237202	89.63801159	89.1174247	88.54781688	87.80180844	87.04724953	86.14457564	85.35202512	84.50193093	83.73962749	82.9765195	82.24475306	81.63324113	80.93180778	80.49103685	79.88083233	79.45850788	79.01607513	78.65107519	78.29958621	77.86836659	77.54041637	77.13330078	76.73282277	76.44699443	76.01471017	75.71828599	75.4621263	74.9640607	74.65805609	74.11263414	74.03851041	73.51989607	73.3601095	72.70606717	72.5509158	71.91099202	71.95811601	71.61074413	72.08699452	72.4203942	73.05022569	73.44199441	74.05068623	74.49548062	75.21350306	75.7072747	76.53290489	76.7932441	77.36196136	77.32851479	77.29122231	77.27445984	77.22855932	77.2683369	77.44002741	77.53535323	77.6230767	77.5990885	77.72521626	77.49632124	77.61900191	77.52522555	77.57833516	77.53268294	77.69919309	77.68194788	77.99169436	78.19058297	78.4649901	78.64727159	78.91995101	79.08997553	79.13093498	79.05452104	78.84358562	78.55288072	78.21186204	77.49924538	77.01102586	76.38105566	75.9821271	75.69505102	75.61093695	75.76574707	75.88480516	76.29398415	76.53075825	77.0554768	77.57905787	78.06390866	78.74030581	79.1940585	79.70108795	79.91684237	80.25199127	80.48551594	80.79932126	81.1125842	81.50496882	81.98122892	82.52014299	83.0583288	83.76020189	84.48687536	85.42556485	86.23523435	87.22999989	87.98910522	88.83276437	89.32572868	89.86762584	90.06658034	90.2149575	90.06552401	89.86623729	89.44006278	88.94910847	88.33721161	87.71950947	87.1057448	86.5166404	86.06183971	85.59236561	85.24638297	84.95516344	84.69448436	84.44566761	84.32016685	84.22786505	84.16324893	84.18204776	84.20403845	84.30200473	84.42735776	84.66430803	84.83394068	85.1836534	85.48149386	85.80146581	86.00427177	86.15350758	86.05043862	85.87736789	85.2956217	84.703125	83.72712361	82.80642145	81.6501659	80.67253737	79.59895533	78.77256289	78.04129791	77.70981251	77.4759903	77.73261885	77.91064245	78.58223794	79.21649864	80.115242	80.76761627	81.68964317	82.37018655	83.2211484	83.85678101	84.70973067	85.40942383	86.36531067	87.19862366	88.14475944	89.06631331	90.10604026	91.06899816	92.02659607	92.90270025	93.58439359	94.10219019	94.33752719	94.44016543	94.24913996	93.94125089	93.31875125	92.6316022	91.61490562	90.66156422	89.49834581	88.5473612	87.56298481	86.95705344	86.45633559	86.3549014	86.4265858	86.78359569	87.26501326	87.92089774	88.62427313	89.38394512	90.14038294	90.81561834	91.37953949	91.72125452
93.2462075	92.52549605	91.94911055	91.29843556	90.89027127	90.42603441	90.14231734	89.80397172	89.70954618	89.49273335	89.43769698	89.106274	88.7352399	87.94836773	87.03493638	85.74549935	84.62584478	83.50733532	82.35493331	81.17121679	80.14410054	79.18207481	78.42673007	77.9006958	77.77912348	77.91371155	78.43474718	78.79600386	79.32579318	79.84402119	80.47032928	80.94594851	81.52805953	81.99995284	82.61433549	83.12445068	83.71242384	84.25942369	84.8962874	85.49145577	86.11415724	86.80512862	87.43844674	88.13251287	88.73513308	89.29553223	89.66482683	89.9844187	90.07285933	90.05272675	89.80505232	89.53851665	88.97256054	88.39445565	87.53905348	86.76602242	85.90858945	85.08888175	84.2934494	83.48591961	82.83546378	82.16533175	81.59301827	80.96146185	80.47774506	80.02609669	79.59743777	79.11022602	78.69735302	78.29114186	78.00447013	77.57573006	77.26259544	76.89083585	76.48048123	76.16808805	75.80009946	75.58072038	75.16798123	74.94255968	74.44626409	74.17161421	73.81618916	73.6191649	73.1304023	73.0095957	72.38731246	72.2947464	71.9558043	72.1915526	72.50997093	73.155666	73.60929385	74.12560134	74.53889951	75.0555191	75.63212031	76.37136841	76.77065624	77.25691084	77.47456915	77.4930947	77.25811421	77.19521748	77.13719801	77.14470187	77.27660717	77.32580913	77.34270269	77.41711495	77.27510556	77.32372423	77.12409488	77.32105186	77.3221817	77.53116053	77.67993025	77.90361786	78.11087868	78.35787548	78.6123893	78.88726529	79.00029477	79.10849693	79.03581723	78.82937969	78.37373907	78.01145103	77.24445274	76.74724926	76.03099129	75.6713888	75.37617285	75.33288852	75.47468706	75.62468165	75.97210208	76.39517281	76.85626914	77.4872173	77.96024877	78.65545169	79.03373788	79.51980521	79.65987466	79.93100739	80.11441803	80.45861955	80.75290056	81.1038208	81.59169769	82.13173745	82.76213074	83.47419669	84.19451003	85.19205128	86.07647774	87.10335818	87.88828971	88.72079052	89.26358587	89.78552454	89.97494646	90.09963018	89.98170402	89.79628199	89.37766682	88.88098006	88.26617709	87.63751082	87.03094066	86.44744873	86.00214317	85.58075992	85.2415605	84.91978316	84.68694791	84.45806261	84.32229614	84.21548601	84.15914085	84.16409579	84.18591309	84.30573619	84.40081302	84.6359898	84.84723247	85.15840288	85.41924217	85.74894645	85.95231698	86.13806985	86.03978868	85.86522397	85.28500852	84.6934759	83.68403834	82.73160484	81.67235149	80.69254026	79.52829742	78.79965695	78.00551536	77.63772514	77.34365221	77.48817652	77.71588135	78.38858865	79.00151686	79.81823106	80.50922741	81.50771332	82.08302654	82.95222959	83.67276695	84.57144165	85.37078511	86.28331618	87.16969715	88.15761497	89.09182392	90.10517606	91.08035625	92.07019875	92.94646107	93.5897626	94.11358088	94.33763677	94.43049622	94.2157676	93.90609672	93.2656361	92.60057068	91.61231578	90.67492606	89.50774245	88.5642395	87.53732022	86.92055303	86.44974102	86.35905873	86.41916865	86.79595046	87.24469826	87.8750756	88.54966181	89.31434007	90.06785514	90.78897927	91.36694821	91.7052321
95.02878779	94.64427324	95.17954046	94.98472665	92.89283475	92.67489485	91.96714158	92.43642217	91.85994027	90.6349307	90.34340252	89.37350186	87.96528556	87.17300484	86.04231678	86.56520219	85.71998666	84.27708019	84.15585466	83.43553994	82.23875635	81.99323758	81.68050662	82.24502078	82.41547602	82.15813099	83.07381023	83.25888547	81.59081338	81.94104767	81.86755926	82.98417872	83.21730319	82.91292364	83.59898723	83.74776528	82.08745055	82.62051426	82.77744813	85.24349247	85.80858716	85.84246029	86.86059674	87.4101455	86.14767005	87.05826395	87.58296377	90.10047913	90.88851998	90.9941649	91.98795249	92.29023327	91.0192878	91.30089847	91.02251504	92.82078622	92.57130501	91.6299161	91.52221402	90.80708798	87.85025718	87.28228136	86.30178556	87.22974812	86.5596147	85.37858512	85.21581546	84.54254289	82.64607794	82.35725472	81.71403087	83.52019501	83.14463321	82.21732469	82.27880374	81.82273934	79.997569	79.85330686	79.35706745	80.18361456	79.95615664	79.21505391	79.35715762	78.97156455	77.17703178	77.1537975	76.74783395	78.06863542	77.94507391	77.38027538	77.85274783	77.60533281	76.26407277	76.38108756	76.0569028	77.64927604	77.54448561	76.97507962	77.40081094	77.26320926	76.17036577	76.33063785	76.19024311	77.39184778	77.5242268	77.21160264	77.74994867	77.86808846	76.64124333	77.04745518	77.05706752	78.0629484	78.3868377	78.15240097	78.8713209	79.11250062	78.0301798	78.55833574	78.68277879	80.41596395	80.74322406	80.36741187	81.12972502	81.17907056	79.13852484	79.20533336	78.70263949	79.74929289	79.2637714	78.0365285	77.9329997	77.20276954	75.76397358	75.54517434	74.9012576	76.85963821	76.81440076	76.25117389	76.81531421	77.05877235	76.4137816	76.93484705	77.32034163	78.74338705	79.35746522	79.49764217	80.43061725	80.99282317	80.41593413	81.39083065	81.94202388	83.9021329	84.87736927	85.30686465	86.70386228	87.50621033	86.64120761	87.61507485	88.08131201	90.18241605	90.68637848	90.48627888	91.14107375	91.08557614	89.28100586	89.18346474	88.52493217	89.71063302	89.12352406	87.92669608	87.7842754	87.15518674	84.85479702	84.62871725	84.06484881	85.17126361	84.97704697	84.28259381	84.63728437	84.49869641	82.95830432	83.10688053	82.92848518	84.81977983	84.97176777	84.65636028	85.42396753	85.6259613	83.52633043	84.11589466	84.34560602	86.44681688	86.97908783	86.87893261	87.81602617	88.04935594	87.202704	87.44351266	87.08908567	88.81584306	88.10014898	86.72887559	85.84922305	84.13585663	82.50319117	81.31819153	79.99761061	78.90375623	77.65349683	76.46140185	76.61988935	76.30492228	75.55554442	76.38715883	77.13840242	78.02928335	78.76384631	79.05407403	81.01782504	81.9519473	81.81976804	83.00434321	83.81771781	85.66206707	86.68076463	87.22948386	88.91209204	90.00010057	89.72462186	91.16099687	91.86104931	93.56788011	94.06591658	93.78367615	94.0714798	93.5967969	91.32323595	90.6133735	89.35351146	89.55951621	88.73158958	87.69319361	87.59379786	87.36605558	85.21553872	85.71383806	85.96752791	88.24871202	89.14556885	89.49222495	90.7868361
84.39610915	84.7848268	85.022746	85.05705261	84.98515944	84.65020128	84.26758645	83.6134484	83.08984791	82.24448325	81.56176203	80.38644895	79.60038619	78.52270785	77.90219116	77.05868114	76.62860454	76.01078727	75.65638941	75.09020372	74.81385665	74.50531145	74.62554793	74.62861841	74.74105349	74.77837164	74.86539112	74.9135978	74.92371715	75.02850689	75.05167666	75.22408295	75.24758911	75.41884544	75.50877935	75.73441523	75.94457176	76.19800984	76.56556979	76.9653466	77.48484594	77.99532942	78.61810511	79.20539995	79.89006528	80.52114521	81.3124133	81.97362518	82.74184973	83.34153123	83.97279358	84.43900785	84.84161377	85.05953841	85.2027144	85.19458771	85.02600722	84.76885431	84.32588265	83.82249104	83.12859344	82.42927898	81.58998108	80.863438	80.04734178	79.34995131	78.67067441	78.05576602	77.44556913	76.81618569	76.31557881	75.83626834	75.42114674	74.97273462	74.50747681	74.13031075	73.76809068	73.35526553	73.12055692	72.74723053	72.5472204	72.17932476	71.85209725	71.50976771	71.21816323	71.01380435	70.67955364	70.5195146	70.27846596	70.09671853	69.87374531	69.7663491	69.49310372	69.45606925	69.35028908	69.42918327	69.38188379	69.35297186	69.30487199	69.3576889	69.24913302	69.20460441	69.05880321	69.1797312	69.12799211	69.15281469	69.19307431	69.15306646	69.34699943	69.33877217	69.38367948	69.46554774	69.77687905	69.99134341	70.18264216	70.41324962	70.6742089	70.82490956	71.18440871	71.37931754	71.71499634	71.9294066	72.17369357	72.15468875	72.14398124	71.85845323	71.47598405	70.97739202	70.16312166	69.36171965	68.2348397	67.44915425	66.22080473	65.6235681	64.962402	64.52120937	64.51299667	64.21304495	64.41905733	64.67776559	65.09347673	65.6848363	66.33282089	67.36924536	68.09314173	69.00728052	69.88804141	70.6452394	71.80529161	72.64006251	73.70333377	74.75368638	75.93689173	76.89669661	77.93689797	78.8581758	79.67863811	80.52723139	81.18436917	81.84676985	82.21286912	82.61459143	82.69926106	82.74302465	82.51408802	82.25173049	81.78905903	81.25341728	80.62587946	79.99239835	79.38456587	78.80256722	78.3454035	77.85929524	77.55221974	77.19931932	76.95548248	76.63827653	76.53886968	76.39331887	76.40212042	76.33988675	76.4665021	76.48030437	76.61182612	76.67126673	76.87323692	77.09863004	77.42198805	77.73931122	78.1517223	78.5818315	79.11716322	79.63009158	80.18087352	80.7288534	81.1146698	81.39088509	81.35592998	81.26830639	80.72904899	80.20519742	79.18826363	78.33414321	76.66449183	75.50321059	73.30710324	72.05645197	70.1855878	69.27501193	67.82052959	67.36229359	66.47765697	66.57540408	66.0525693	66.80196519	66.7654308	68.21233021	68.55740079	69.930087	70.30598658	71.60137038	72.07278512	73.25478849	73.84544997	75.14339378	75.96911205	77.2558788	78.22596533	79.57228851	80.65759416	81.89432872	82.7780519	83.59204518	84.06278437	84.23836795	84.18710397	83.715065	83.18007937	82.24861977	81.48136832	80.51701563	80.01784446	79.5330547	79.56522924	79.57025355	80.05287032	80.42149145	81.24814536	81.884801	82.79780717
84.6439861	84.64348325	85.43624254	85.47584326	84.0025281	83.95968212	83.32623291	83.85652924	83.26240886	82.09721444	81.77098153	80.76761974	78.56164655	77.9225502	77.00640349	77.64351342	77.20350751	76.34363174	76.50859035	76.13642294	74.19723788	74.27514995	74.058437	75.35413048	75.50417224	75.10399316	75.70462556	75.6867166	74.18543382	74.41077701	74.21835882	75.84022626	76.00462237	75.63398985	76.2350183	76.31247399	75.07510515	75.56999623	75.70127869	77.58560077	78.13134037	78.20744844	79.24750345	79.79974747	78.99239453	79.85248254	80.37809025	82.46005457	83.21320898	83.44736203	84.50293038	84.97322984	83.80120919	84.31725103	84.31480963	85.75382025	85.75714527	85.08547766	85.21126418	84.64659743	82.10476546	81.66993228	80.72101316	81.50330214	80.82827135	79.56767967	79.3924075	78.66981853	76.16578328	75.79805964	75.04291257	76.36230261	75.92320251	74.84719779	74.91351457	74.43927973	71.88575641	71.70651835	71.11749441	72.54946934	72.28333595	71.4816357	71.66705704	71.3411841	70.05438718	69.98280681	69.53228621	71.48628963	71.36904526	70.68364057	70.97260527	70.69868365	68.86399217	68.92756514	68.54191936	69.43640588	69.38536315	68.80525728	69.18528574	69.02155131	66.39369271	66.61959908	66.37630185	67.95276538	67.96957501	67.49032489	68.18542585	68.24498714	66.72646401	67.02053209	66.9646433	69.74779753	69.93200025	69.6206072	70.3656155	70.62221631	69.73304194	70.15698728	70.19345717	72.10157464	72.48983244	72.28473698	72.88666708	72.91721795	71.61152337	71.66666308	71.11534292	71.70928157	70.95894588	69.39534933	68.67213197	67.34607315	65.58086465	64.75809479	63.54616824	64.62687961	64.2497087	63.23584955	63.86607673	63.98730503	63.36576913	64.35678794	65.01324463	66.55453734	67.62937962	68.37780658	69.51614969	70.52451983	70.36938962	71.53634158	72.51801023	74.80204114	75.94909148	76.61790778	78.16177125	79.13482978	78.73393354	79.79534877	80.32609177	82.44408278	82.97168524	82.80666837	83.47140919	83.40028312	81.58875483	81.47401706	80.80303053	81.56847243	80.99047297	79.88195939	79.76392503	79.13546614	77.13969872	76.90396292	76.28133566	77.6187921	77.40896364	76.7256279	77.04447417	76.8783878	75.27248868	75.40441686	75.19240501	76.76818397	76.94141492	76.6720425	77.325342	77.50472086	76.25657827	76.80881396	77.00613369	78.96231634	79.5647472	79.70165877	80.71043465	81.22428409	79.88400026	80.4013606	80.32396317	81.73300275	81.49963552	80.44218965	80.22244644	79.15268534	75.34515207	74.20835564	72.45404573	72.80435111	71.30482067	69.17447801	68.58257987	67.50683871	65.85407257	65.56840931	65.16431982	67.85339494	68.22319239	68.3131804	69.35291706	70.13454992	69.76428708	70.72741214	71.38218897	73.28525404	74.23206815	74.72835888	76.08418066	77.01248724	77.18761513	78.5066882	79.54140958	82.03116469	83.15311085	83.6472272	84.66459032	84.9660811	83.14084556	83.17115506	82.4791454	82.70528689	81.95860568	80.55331005	80.48474399	79.94257355	78.29621818	78.56811246	78.62441531	80.92602539	81.60498116	81.88190391	83.08486384
84.22535914	84.21042702	84.91303947	84.94997822	83.44635114	83.39952677	82.75160807	83.45424825	82.87752082	81.69380223	81.34374549	80.35732581	77.8779179	77.24763974	76.2998137	76.96343543	76.52203057	75.63217406	75.74012375	75.31582676	71.93153693	72.04438331	71.81838677	73.30320601	73.45431033	72.9892918	73.59420707	73.57951632	71.15217417	71.43316061	71.29437013	74.39630994	74.56369123	74.22505639	74.91025023	74.99946282	73.56309648	74.02841325	74.12528576	77.00206375	77.52690229	77.52908221	78.56301637	79.08574503	78.21497449	79.08403258	79.57031562	81.93044975	82.69728851	82.90094688	83.92170369	84.36892978	83.19543804	83.69115587	83.67344527	85.12752325	85.09723455	84.37413233	84.48129203	83.922502	81.49252042	81.01443273	80.05215662	80.88788882	80.1919625	78.9560096	78.7703143	78.0439786	75.80109614	75.44088052	74.69649714	75.96980355	75.58909746	74.67649425	74.71385401	74.21716378	72.22338694	72.06686713	71.51667543	72.72330579	72.47648655	71.7187018	71.87703185	71.49753813	68.8519894	68.80452069	68.39524113	69.67302912	69.50165974	68.75030726	69.17081868	68.92178761	67.30235949	67.42236224	67.08306018	69.31126508	69.25821374	68.59086227	69.10354372	68.95927048	66.97579124	67.04037476	66.79843695	68.21310876	68.26309239	67.84316288	68.36416799	68.3773065	67.45908113	67.72234379	67.6800818	69.8296488	70.08306538	69.86484042	70.49826258	70.65512848	69.24083294	69.75808924	69.8523296	71.1255507	71.46884502	71.19911402	71.85443046	71.90484619	69.99065295	69.99259498	69.32911925	70.35268021	69.56051185	67.94706171	67.09040278	65.42359439	63.92153619	63.09475049	61.98284045	63.28468357	62.93309957	62.19795504	62.8133316	63.0489502	62.61493093	63.78537161	64.92431745	66.41030051	67.5673516	68.21158808	69.65482504	70.70408388	70.55454532	71.77949732	72.68006065	74.85099584	76.08856964	76.65951954	78.09174555	78.98277213	78.35897134	79.37157163	79.88660362	81.83936102	82.35061091	82.16875666	82.81401964	82.73910869	80.76507187	80.6369237	79.94662857	80.97523048	80.42643495	79.3505953	79.21691097	78.5821398	76.52209473	76.29038377	75.70610185	77.19703085	76.99042268	76.3223818	76.5713879	76.3783448	74.40584495	74.59006778	74.41027416	76.02858769	76.16086544	75.80363291	76.47929764	76.64349816	75.23950958	75.81009882	76.00354906	78.3422321	78.93681648	79.03516769	80.08521791	80.58885019	79.60532483	80.10218221	80.0212607	81.55300973	81.29719821	80.32056704	79.99453111	78.94380673	76.27936866	75.10350973	73.33173197	73.2328949	71.69486028	69.73231056	69.10995171	68.04894361	66.2125962	65.97221617	65.49331838	66.96578633	67.30979434	67.33320202	68.45234368	69.26148605	68.86627995	69.91374519	70.63836843	72.69421699	73.72611063	74.25872005	75.80824869	76.86382398	76.91390679	78.35574375	79.43479191	81.92109195	83.04043857	83.47372298	84.45223514	84.7003264	82.89393408	82.86602575	82.14101757	82.56278506	81.73545144	80.29133675	80.04943432	79.42382951	77.6847333	77.92302357	77.93938723	80.21421953	80.82499001	81.05186116	82.29658994
